3383.9011,3381.8455,3380.4019,3340.1348,3340.6548,3340.5715,3341.2559,3302.6682,3301.8938,3300.8928,3265.4229,3264.809,3264.9397,3235.9495,3236.5361,3236.6792,3236.5527,3212.0684,3211.8445,3211.6233,3191.9087,3191.2405,3191.5925,3176.1665,3176.3672,3176.6104,3176.3538,3162.2546,3162.049,3161.4182,3146.5183,3146.2727,3145.9744,3134.0142,3133.424,3132.759,3131.5112,3120.6167,3119.6846,3120.451,3111.5012,3113.913,3114.669,3100.616,3103.3926,3105.4656,3105.3188,3088.0415,3088.9153,3088.8438,nan,nan,nan,nan,nan,nan,nan,nan,nan,nan,1868.6532,1867.9376,1867.8445,1854.0514,1854.0353,1855.7527,1858.648,1852.4475,1853.867,1855.9614,1848.8699,1847.9877,1848.3966,1847.5522,1847.6666,1847.7744,1847.8726,1847.0911,1846.9565,1847.137,1846.6722,1847.5242,1848.7554,1847.9363,1848.0902,1848.1232,1847.8617,1844.9801,1844.7557,1844.8656,1844.657,1844.672,1844.3279,1843.925,1844.2097,1844.3503,1844.1583,1844.7329,1845.5609,1845.556,1842.2239,1842.2262,1842.2395,nan,nan,nan,2864.2798,2858.4407,2874.6714,2876.6973,2827.3774,2763.6252,2758.183,2752.2246,2751.4685,2750.1267,2753.3357,2754.3298,2753.8215,2753.0852,2763.2908,2762.5686,2763.496,2773.7476,2773.5657,2773.6372,2775.2388,2782.4775,2781.7395,2780.671,2797.62,2827.1482,2876.226,2891.7263,2885.4302,2872.9202,2871.8564,2899.0981,2900.6245,2875.8503,2921.3582,2922.6946,2922.2375,2927.147,2924.2817,2926.867,2926.7085,2928.4705,2928.1155,2927.7485,2929.524,2929.5886,2929.5525,2931.2634,2931.1545,2930.8992,2930.8645,2931.9966,2931.762,2931.618,2933.3127,2933.042,2932.5156,2932.784,2932.1436,2932.0657,2931.971,2935.5793,2935.4146,2934.3135,2936.7886,2933.3655,2931.886,2934.7644,2934.5483,2937.6648,2934.2573,2937.1511,2933.3655,2928.7458,2927.185,2927.183,2930.4165,2921.7454,2918.1963,2918.9473
3410.9944,3409.216,3407.9622,3367.8225,3368.2551,3369.0627,3369.4983,3330.4521,3330.371,3329.7178,3293.7588,3293.7288,3294.098,3264.8494,3264.9158,3265.5486,3265.33,3241.5054,3240.824,3240.9495,3220.8293,3220.472,3221.1663,3205.0078,3204.5554,3205.32,3203.1394,3188.097,3186.8625,3184.0544,3167.9639,3164.626,3163.157,3149.9692,3146.8486,3145.8723,3145.254,3133.097,3133.2002,3134.4902,3123.9832,3127.2083,3128.677,3112.9744,3116.2524,3118.6074,3118.548,3100.2163,3101.9646,3101.9646,nan,nan,nan,nan,nan,nan,nan,nan,nan,nan,1866.8656,1864.9849,1863.523,1853.3442,1853.3328,1854.7108,1857.5187,1851.1237,1852.383,1853.4614,1846.6399,1846.4874,1846.5789,1844.1913,1844.1172,1844.296,1844.4689,1843.5442,1843.7878,1843.9241,1843.0712,1842.7185,1842.2965,1842.5154,1843.4342,1842.7025,1842.3907,1840.8811,1840.7412,1840.6515,1841.2338,1841.2444,1840.9452,1841.8265,1841.856,1841.704,1841.2518,1843.2511,1843.8184,1843.829,1840.8142,1840.9174,1841.0162,nan,nan,nan,2920.7898,2917.9187,2920.3113,2922.8064,2919.3484,2806.7246,2797.9194,2796.712,2790.6567,2788.712,2802.6562,2804.524,2802.237,2805.624,2826.208,2829.1611,2849.5137,2910.3733,2918.979,2915.962,2897.0002,2898.635,2890.6926,2888.6567,2882.5095,2884.1433,2884.951,2917.9233,2916.5962,2916.013,2914.704,2919.361,2920.779,2920.5881,2924.0063,2923.8298,2922.506,2929.4568,2929.6406,2929.3281,2929.2683,2931.4749,2931.2214,2930.966,2931.8777,2931.7234,2931.69,2932.5454,2933.255,2935.416,2936.8728,2936.7944,2937.7183,2938.1782,2931.9756,2932.2573,2932.5889,2925.6357,2925.7502,2925.6792,2925.9949,2920.1504,2920.701,2921.2986,2917.689,2918.0847,2918.1055,2916.4878,2917.4468,2919.1443,2917.7473,2917.6558,2915.0266,2912.2344,2905.3218,2902.1707,2900.5466,2890.6692,2890.7026,2890.9556
3409.8877,3408.5208,3407.6638,3366.8274,3368.3044,3367.218,3367.9763,3329.4536,3330.1602,3328.2776,3293.2664,3292.9263,3291.8606,3261.261,3260.3833,3259.8923,3259.1157,3231.794,3229.1758,3228.2622,3205.7556,3205.6316,3205.2214,3189.183,3188.56,3188.7556,3188.7031,3173.641,3173.5945,3173.1255,3157.3037,3156.985,3156.6416,3144.2886,3143.936,3143.8745,3143.8733,3131.9622,3132.2737,3133.5205,3123.1858,3126.1758,3127.6743,3112.0605,3115.329,3117.6719,3117.6128,3099.2817,3101.9646,3101.9646,nan,nan,nan,nan,nan,nan,nan,nan,nan,nan,1866.3918,1865.346,1864.6565,1853.4728,1853.5232,1855.3123,1858.0167,1851.3322,1852.3647,1853.6996,1846.3635,1846.2621,1846.6387,1843.942,1844.0259,1844.3501,1844.5964,1843.4247,1843.5613,1843.718,1843.0132,1843.2051,1842.3942,1841.4536,1841.32,1840.9832,1841.3822,1840.494,1840.4017,1840.5779,1841.1803,1841.1508,1840.9817,1841.7194,1841.7925,1841.6412,1841.2437,1843.3949,1844.185,1844.0494,1840.9684,1840.9525,1841.1011,nan,nan,nan,2920.7905,2918.9863,2919.0806,2921.7993,2919.8525,2887.1892,2832.718,2835.2312,2831.4697,2867.655,2893.956,2914.2793,2918.5469,2919.4148,2930.631,2926.434,2911.6416,2860.3367,2858.1423,2858.4292,2860.0955,2856.5623,2858.7014,2857.835,2884.6643,2885.6907,2886.6516,2904.015,2905.1646,2903.4883,2903.4385,2918.46,2917.4768,2914.2578,2924.553,2922.596,2922.1562,2929.6006,2930.0427,2930.3418,2930.1467,2932.5737,2932.4106,2932.3582,2933.4224,2933.7756,2934.1143,2935.612,2937.3857,2938.2773,2939.0747,2936.9219,2937.6633,2937.6716,2932.7925,2932.9514,2932.9067,2925.864,2925.9153,2925.9177,2926.0989,2920.4402,2920.5752,2921.4272,2917.517,2917.9338,2917.696,2916.039,2916.0706,2916.5862,2919.3281,2920.5703,2914.7905,2910.226,2902.5063,2898.7222,2894.101,2885.198,2886.5793,2886.4912
3410.3867,3408.5503,3407.3838,3367.0212,3366.4067,3365.113,3365.857,3325.1953,3323.8655,3321.559,3284.2446,3281.812,3280.5417,3252.0776,3252.4792,3252.867,3253.1423,3227.2996,3226.848,3226.8413,3205.5232,3205.0708,3205.6482,3188.794,3188.75,3189.1506,3189.134,3174.384,3174.4707,3173.8567,3157.934,3157.8542,3157.563,3144.8137,3144.7546,3144.482,3144.5095,3132.5842,3132.9717,3133.9675,3123.6184,3126.5464,3127.9644,3111.9875,3114.8193,3117.0183,3116.9292,3098.6067,3101.9646,3101.9458,nan,nan,nan,nan,nan,nan,nan,nan,nan,nan,1866.6759,1865.8291,1865.5463,1853.6389,1853.6598,1855.6061,1858.4882,1851.6993,1852.4001,1852.404,1846.3524,1846.2792,1846.5267,1843.6067,1843.8362,1844.3864,1844.4973,1843.3594,1843.3827,1843.5895,1842.823,1843.0227,1842.9307,1841.4906,1841.0599,1840.9283,1840.5646,1840.0421,1840.1198,1840.4943,1841.3044,1841.2489,1841.1128,1841.786,1841.9417,1841.9982,1841.5781,1843.5463,1844.3788,1844.671,1841.2493,1841.0454,1841.1191,nan,nan,nan,2920.7922,2920.0623,2912.285,2911.688,2867.09,2876.5566,2893.9924,2895.3062,2899.4324,2892.9998,2889.4226,2893.751,2884.9104,2870.8406,2917.5486,2905.356,2898.5251,2859.2112,2859.9165,2868.4045,2892.1885,2854.9592,2854.3237,2855.5415,2901.3442,2898.7021,2869.0151,2910.681,2921.3787,2939.5479,2940.0447,2939.9292,2942.8892,2943.563,2943.2332,2943.5945,2942.892,2941.89,2941.341,2940.9988,2940.8088,2939.764,2939.7454,2939.7146,2939.0166,2938.8875,2938.747,2939.4705,2939.4836,2939.1624,2939.1475,2936.6846,2936.7617,2937.0984,2933.1846,2933.1208,2932.895,2925.9985,2926.0413,2926.0212,2926.039,2919.8828,2920.2234,2920.3098,2916.3577,2916.0312,2915.4724,2914.0957,2913.372,2912.6162,2915.0688,2918.7854,2910.829,2907.9153,2900.3547,2899.2102,2892.744,2884.6702,2886.2344,2886.641
3397.0137,3396.1143,3395.3005,3353.6392,3353.3623,3353.0828,3353.6167,3315.6172,3314.8855,3314.4106,3280.4226,3279.334,3278.6882,3250.7627,3252.2192,3252.7173,3252.251,3226.7473,3226.6885,3227.0093,3205.9104,3205.7563,3206.175,3189.4067,3189.624,3189.796,3190.0618,3175.2205,3175.381,3175.2026,3159.604,3159.643,3159.1982,3146.3599,3146.3555,3146.1301,3145.7576,3133.9346,3134.4004,3135.4165,3125.7434,3129.1602,3130.1582,3113.319,3114.9856,3116.3115,3116.2822,3098.0598,3101.9458,3102.0212,nan,nan,nan,nan,nan,nan,nan,nan,nan,nan,1866.8137,1865.8372,1865.72,1853.7019,1853.7142,1855.7255,1858.97,1851.8424,1851.6985,1851.5286,1846.9294,1847.2513,1847.1531,1844.5051,1844.1849,1844.3694,1844.2417,1843.3528,1843.4746,1843.6122,1842.8564,1842.9435,1842.8755,1841.7432,1840.583,1840.684,1840.714,1839.9651,1840.2596,1840.812,1841.7203,1841.3354,1841.1621,1841.8022,1842.2579,1842.4543,1842.1537,1843.5399,1844.2594,1844.4585,1841.2235,1841.1826,1841.2184,nan,nan,nan,2920.5696,2912.187,2904.8035,2912.7664,2875.7725,2892.5835,2896.0566,2897.0781,2903.997,2902.727,2900.743,2904.678,2905.9805,2899.3572,2909.9373,2900.6958,2900.3655,2863.8918,2869.3286,2892.3462,2886.656,2889.7,2900.6216,2904.9785,2914.679,2911.8174,2886.6333,2912.3408,2928.891,2948.1614,2945.5505,2943.1042,2943.2395,2941.4463,2940.4783,2940.49,2940.2944,2940.802,2940.444,2940.3381,2940.2727,2939.3274,2939.485,2939.6055,2939.1387,2939.0083,2939.0574,2940.1035,2940.3086,2940.1172,2940.186,2937.675,2937.6885,2937.7412,2933.314,2933.4565,2933.3975,2925.5046,2925.364,2925.4368,2925.5452,2919.2427,2919.2366,2919.2976,2914.6257,2914.684,2914.6414,2912.8909,2912.7214,2911.9128,2913.085,2919.2395,2911.4407,2907.8586,2900.4172,2899.588,2893.3665,2884.53,2886.6963,2887.056
3426.6833,3425.7732,3424.8042,3384.1562,3383.8354,3382.9788,3384.3965,3345.9512,3346.6401,3344.9143,3308.9648,3307.7485,3306.4229,3278.6023,3279.6719,3280.4343,3280.38,3256.632,3256.954,3256.9001,3238.0144,3238.7156,3238.7134,3221.6873,3222.1982,3222.5198,3222.1797,3211.2898,3211.4458,3210.8977,3200.8145,3200.544,3200.6953,3198.3928,3199.5789,3198.9326,3196.9084,3190.8306,3189.0051,3188.2422,3185.8296,3188.2026,3187.2173,3168.325,3158.197,3148.964,3148.5225,3109.815,3109.815,3109.815,nan,nan,nan,nan,nan,nan,nan,nan,nan,nan,1863.2886,1863.0725,1863.0243,1852.6326,1852.8514,1854.5607,1857.4596,1850.3871,1849.4406,1849.5472,1844.8473,1845.8073,1846.0397,1841.9987,1841.5289,1841.4401,1841.4965,1839.7662,1839.8513,1840.0245,1839.4865,1839.4524,1839.1677,1838.9972,1838.2828,1838.1113,1837.9766,1837.6805,1838.2122,1838.5642,1838.7576,1838.6362,1838.4502,1838.7705,1839.5045,1840.0366,1839.8531,1841.451,1841.9363,1842.0614,1840.1024,1840.2395,1840.3912,nan,nan,nan,2922.162,2923.3333,2924.2778,2924.1816,2936.2224,2935.298,2934.6113,2933.9746,2930.7847,2931.2087,2933.412,2938.1191,2937.1807,2939.4573,2943.2754,2939.7117,2939.3613,2958.7256,2957.2395,2961.978,2965.1086,2965.5654,2964.8848,2964.2766,2963.5234,2963.7603,2960.7544,2956.52,2955.1992,2962.175,2962.0046,2961.1648,2962.436,2962.415,2957.867,2958.815,2958.758,2952.5808,2952.5574,2952.7688,2953.0369,2948.5964,2948.5664,2948.571,2945.2058,2945.1482,2945.2327,2944.1404,2944.2185,2944.3843,2944.428,2939.5686,2939.597,2939.492,2933.5298,2933.6382,2933.4382,2925.8064,2925.7559,2925.7559,2925.9268,2919.4321,2919.509,2919.4824,2914.4446,2914.3982,2914.509,2911.4395,2911.501,2911.8018,2912.5444,2911.0652,2908.1604,2905.494,2894.8496,2894.2295,2889.2327,2882.0652,2882.854,2883.477
3431.4387,3430.4663,3432.2507,3397.6316,3392.107,3383.927,3384.502,3346.2427,3347.0234,3345.6958,3308.3293,3307.4907,3306.935,3278.8528,3279.097,3280.0508,3280.1926,3257.2095,3257.7473,3258.0483,3239.375,3239.5457,3239.8079,3222.5789,3223.3948,3223.7485,3223.8884,3213.1135,3213.537,3213.1965,3204.2026,3204.3289,3205.141,3208.2944,3212.6719,3214.7537,3218.8066,3220.1545,3222.2874,3222.5154,3230.0488,3233.353,3233.0356,3235.0884,3223.179,3187.2993,3210.173,nan,nan,nan,nan,nan,nan,nan,nan,nan,nan,nan,nan,nan,1863.1793,1863.1106,1863.1022,1852.5629,1853.0304,1854.8467,1857.9778,1850.4873,1849.2094,1850.0286,1845.5114,1845.4493,1845.0115,1841.5007,1841.4829,1842.7019,1842.9233,1840.3519,1840.6893,1840.37,1839.322,1838.9646,1838.7523,1839.3699,1839.4312,1839.1561,1838.7919,1837.8716,1838.2908,1838.2397,1839.1862,1839.5112,1839.4026,1839.8208,1839.6677,1840.0,1840.0587,1841.9049,1842.3605,1842.1936,1840.2428,1840.2416,1840.2457,nan,nan,nan,2922.2288,2922.8171,2923.8313,2924.2302,2935.8242,2935.3357,2934.1394,2933.348,2931.266,2931.6309,2933.358,2937.4055,2936.9968,2938.9573,2943.1719,2941.288,2941.3608,2958.1875,2957.9382,2962.8418,2964.0327,2962.1348,2959.3838,2956.2874,2962.5144,2960.645,2960.8616,2961.044,2963.1626,2964.091,2959.9624,2964.3076,2964.058,2964.0554,2959.2231,2960.129,2960.064,2953.5405,2953.3308,2953.4368,2953.583,2948.7249,2948.7627,2948.8335,2945.4834,2945.4863,2945.481,2944.2798,2944.3005,2944.3955,2944.399,2939.5793,2939.58,2939.4185,2933.543,2933.4707,2933.1812,2925.5732,2925.5874,2925.5554,2925.6978,2919.1575,2919.346,2919.198,2914.3909,2914.1873,2914.1604,2911.984,2911.787,2911.93,2912.4075,2911.582,2908.6143,2905.937,2896.448,2895.0862,2890.0947,2882.3406,2882.948,2883.1123
3451.728,3449.505,3445.3477,3403.616,3395.4858,3385.6755,3382.695,3344.1504,3344.4363,3343.6853,3307.485,3307.2815,3306.4138,3278.727,3279.406,3279.4817,3279.9463,3256.1538,3256.6035,3256.9338,3237.7217,3237.4026,3237.726,3220.4756,3221.5105,3222.2493,3224.0894,3214.2026,3216.1812,3220.6965,3220.59,3225.3606,3225.4485,3234.4211,3235.1716,3234.412,3233.6729,3241.9448,3240.5566,3239.2983,3246.2466,3245.0635,3244.7896,3247.291,3247.291,3247.291,3247.2908,nan,nan,nan,nan,nan,nan,nan,nan,nan,nan,nan,nan,nan,1863.1617,1863.1963,1863.1361,1852.415,1852.8766,1855.043,1857.987,1850.1315,1849.262,1850.6884,1846.327,1846.9199,1846.8508,1841.363,1841.7535,1841.3904,1840.4755,1837.7994,1837.7229,1837.7621,1838.3566,1838.7805,1839.022,1839.3246,1839.5359,1839.4891,1839.5424,1838.6259,1838.4031,1838.7947,1839.5887,1840.0471,1839.7903,1840.9773,1840.9193,1839.7485,1839.136,1841.4159,1841.8856,1841.9292,1840.2563,1840.2102,1840.3043,nan,nan,2921.9407,2921.5298,2919.1655,2923.338,2924.157,2934.7993,2935.816,2934.0708,2932.4006,2930.2878,2931.3054,2932.966,2937.162,2937.4297,2938.4648,2943.268,2942.1313,2941.5676,2952.1401,2950.099,2957.7124,2962.7656,2962.073,2960.6956,2963.6726,2964.0034,2965.3103,2965.344,2962.4543,2962.2476,2965.3357,2965.6472,2964.812,2964.2195,2964.1748,2959.27,2960.0774,2960.0947,2953.453,2953.3267,2953.2556,2953.4001,2948.5247,2948.585,2948.6855,2945.4836,2945.4731,2945.3845,2944.297,2944.2112,2943.8713,2943.649,2939.0164,2939.2246,2939.0342,2932.728,2932.9487,2933.076,2925.649,2925.5718,2925.57,2925.5864,2919.183,2919.1191,2919.0325,2914.203,2914.1707,2914.0273,2912.3977,2911.9683,2912.044,2912.4358,2911.9153,2909.6355,2906.0127,2897.2336,2894.8691,2890.6135,2882.3875,2883.2852,2883.348
3488.2742,3486.4324,3484.3157,3424.006,3417.5063,3413.3804,3412.887,3365.1833,3366.704,3368.6143,3338.136,3337.683,3338.5605,3317.2498,3319.5808,3321.1208,3322.3708,3290.2654,3290.4927,3289.673,3263.1313,3262.7532,3261.555,3237.3547,3236.5928,3235.8123,3235.8887,3224.868,3226.5173,3227.956,3231.2163,3230.1506,3231.499,3216.6636,3213.0137,3214.6948,3221.7283,3205.37,3209.4333,3219.397,3173.9016,3177.791,3178.5251,3163.0325,3160.3794,3124.619,3121.4102,nan,nan,nan,nan,nan,nan,nan,nan,nan,nan,nan,nan,nan,1862.6125,1862.7408,1862.7622,1849.7017,1851.3102,1854.0342,1856.021,1847.7759,1847.7717,1849.0824,1843.7234,1843.6921,1844.5557,1840.4634,1840.3103,1840.0583,1838.8871,1835.8462,1835.6598,1836.0353,1835.3427,1835.8406,1836.4049,1835.8132,1836.1383,1836.4625,1836.6678,1836.0244,1836.0762,1836.4491,1836.8861,1836.8091,1836.4181,1837.8884,1837.44,1836.8201,1836.0968,1838.3242,1838.2833,1838.147,1838.7446,1838.754,1838.877,nan,nan,2922.3772,2922.6157,2926.1729,2926.1077,2925.3003,2943.5635,2940.7556,2939.4539,2939.3955,2936.4846,2935.524,2936.9453,2943.9368,2942.74,2945.1829,2946.7437,2946.0645,2947.5203,2959.9294,2960.7944,2963.405,2964.7175,2964.6414,2964.6255,2964.5159,2965.345,2965.0237,2964.9639,2965.3218,2965.2302,2964.945,2964.9236,2964.8564,2964.2585,2964.196,2961.1838,2961.6853,2961.602,2955.7686,2955.684,2955.5396,2955.5867,2950.6633,2950.6426,2950.6536,2946.3428,2946.3887,2946.2734,2944.0728,2944.054,2944.107,2944.1516,2939.417,2939.5015,2939.4175,2933.6367,2933.7632,2933.69,2926.255,2926.061,2925.9985,2926.016,2919.4788,2919.34,2919.268,2914.2913,2914.2964,2914.2378,2911.3394,2911.3318,2911.6326,2911.2024,2909.1829,2908.5928,2903.2717,2892.385,2891.213,2885.0593,2876.6301,2878.3062,2878.5266
3487.5303,3482.1719,3477.808,3426.6726,3422.0437,3420.4258,3420.9182,3366.6604,3364.6948,3363.7004,3341.6675,3341.1853,3344.268,3326.8657,3325.9836,3327.018,3328.1946,3295.2878,3284.6816,3280.6345,3246.0913,3245.8564,3249.233,3235.2478,3234.468,3232.213,3226.5898,3207.4102,3204.874,3195.8706,3192.52,3193.0232,3201.0708,3185.7866,3183.808,3183.711,3178.512,3171.445,3165.3313,3177.2405,3145.1672,3160.0535,3168.7058,3130.75,3120.1584,3106.1228,3104.8462,nan,nan,nan,nan,nan,nan,nan,nan,nan,nan,nan,nan,nan,1862.5565,1862.7557,1862.707,1849.6932,1851.5121,1853.9806,1855.4819,1847.7266,1848.0919,1849.3,1843.8014,1844.0409,1844.7335,1840.7784,1841.4473,1841.0922,1840.1967,1836.7925,1836.828,1836.7739,1835.8953,1835.8812,1835.98,1836.0056,1836.147,1836.4111,1836.8586,1836.2401,1836.2434,1835.9575,1837.0952,1836.637,1836.0372,1837.8434,1837.2421,1836.7933,1836.3656,1838.3629,1838.1152,1837.82,1838.7045,1838.7286,1838.8611,nan,nan,2922.4443,2923.4746,2926.8643,2925.8142,2925.2495,2944.8525,2943.0317,2940.0374,2939.7288,2937.6252,2936.6687,2937.3818,2945.6812,2946.0557,2947.8733,2947.8027,2947.4272,2949.5205,2963.3682,2963.972,2964.6255,2964.7444,2964.6958,2964.75,2964.6343,2965.4482,2965.0989,2965.1235,2965.3333,2965.3281,2965.118,2965.0862,2964.7031,2964.172,2964.2148,2960.222,2960.5002,2960.5125,2954.5364,2954.6746,2954.6755,2954.6802,2949.9048,2949.8333,2949.909,2946.07,2946.1514,2946.1418,2944.295,2944.3416,2944.4187,2944.461,2939.6953,2939.7852,2939.603,2933.794,2933.8967,2933.8025,2926.234,2925.9993,2925.9395,2925.8604,2919.3906,2919.287,2919.1987,2914.1995,2914.2837,2914.177,2911.3652,2911.3208,2911.6113,2911.2656,2908.857,2909.439,2902.9187,2891.5464,2891.441,2886.1492,2876.751,2878.387,2878.6772
3548.0542,3546.9602,3513.087,3406.3835,3396.091,3396.4807,3407.4739,3364.5247,3364.6392,3365.981,3343.4363,3344.6287,3346.1738,3328.1345,3325.2363,3320.1562,3313.8699,3271.2986,3259.5544,3247.479,3215.027,3202.5627,3195.486,3179.4495,3180.0588,3181.9553,3183.2603,3173.006,3173.162,3173.2993,3167.5874,3166.3696,3163.4426,3146.456,3143.195,3143.7288,3144.4941,3135.6313,3138.9043,3141.3308,3110.0356,3109.891,3117.7554,3095.125,3096.3748,3107.1147,3103.57,nan,nan,nan,nan,nan,nan,nan,nan,nan,nan,nan,nan,nan,1862.5616,1862.6316,1862.5917,1849.7317,1851.4056,1853.9697,1854.9742,1847.6912,1848.2577,1849.7015,1844.0225,1844.6295,1844.8956,1841.7725,1841.994,1841.5035,1841.117,1837.519,1837.2723,1837.1749,1835.9822,1835.919,1836.0114,1835.9993,1836.2217,1836.5135,1837.2467,1836.4325,1836.5629,1836.0121,1836.5573,1836.3265,1835.8911,1837.6555,1837.0945,1836.9565,1836.4744,1838.0621,1837.7971,1838.0424,1838.9836,1838.9962,1838.1411,nan,2923.742,2922.6404,2923.5884,2926.5706,2925.5542,2925.0447,2944.619,2942.6611,2940.595,2938.7356,2937.0337,2935.9521,2935.787,2942.7007,2944.376,2945.7043,2946.6213,2946.3235,2948.57,2961.2532,2963.109,2964.6326,2964.745,2964.776,2964.7673,2964.72,2965.4905,2965.1047,2965.2397,2965.584,2965.8662,2965.1975,2965.1116,2964.769,2964.2498,2964.3076,2960.686,2960.8457,2960.7607,2954.75,2954.7356,2954.8115,2954.783,2950.0586,2949.9517,2949.9744,2946.1091,2946.105,2946.1218,2944.2656,2944.3113,2944.433,2944.4312,2939.7866,2939.8525,2939.6787,2933.8271,2933.9856,2933.8875,2926.159,2925.8616,2925.8274,2925.7878,2919.23,2919.1672,2919.0847,2914.1926,2914.1755,2914.2441,2911.351,2911.3652,2911.693,2911.3928,2907.7642,2908.7847,2902.5842,2891.1907,2890.0996,2884.4302,2876.1218,2878.318,2878.5146
3566.4873,3565.0059,3455.639,3301.5881,3289.725,3283.6855,3291.521,3277.19,3275.2607,3276.0261,3256.5872,3260.6235,3259.676,3240.9363,3241.9265,3241.9854,3240.352,3216.99,3220.2632,3216.6091,3199.0554,3200.832,3204.6362,3182.3684,3180.0466,3179.9436,3179.7202,3163.2903,3160.4604,3162.6575,3152.584,3154.684,3151.216,3135.9883,3133.559,3135.4006,3138.2192,3128.3694,3134.3696,3137.1426,3111.9023,3118.0205,3132.985,3120.4292,3111.8816,3112.7412,3102.7197,nan,nan,nan,nan,nan,nan,nan,nan,nan,nan,nan,nan,nan,1862.5574,1862.5732,1862.4681,1850.7363,1851.1027,1853.6841,1854.7922,1847.4993,1848.2003,1849.8384,1844.224,1844.9814,1845.3568,1841.4036,1841.2921,1840.9066,1841.4033,1837.4856,1837.1554,1837.1123,1836.0612,1835.9863,1836.1978,1835.9846,1836.3256,1836.963,1837.3699,1837.186,1837.1313,1836.2642,1836.4657,1836.2632,1835.9437,1837.7938,1837.1168,1837.1727,1836.797,1838.086,1837.7756,1838.0886,1838.9885,1838.8711,1837.6017,nan,nan,2923.2603,2922.846,2925.7383,2925.5962,2925.0254,2941.3613,2940.1387,2938.7754,2936.735,2935.6743,2935.147,2935.4924,2941.9495,2942.7673,2943.0896,2946.0242,2945.8884,2947.6006,2960.3135,2961.4692,2964.5808,2965.3455,2965.796,2965.7341,2965.6985,2966.1633,2966.0652,2966.0298,2965.488,2965.7393,2965.4185,2965.326,2964.8909,2964.319,2964.3286,2960.6047,2960.9285,2960.801,2954.697,2954.7727,2954.9294,2954.7783,2949.9321,2949.8865,2949.9001,2946.0256,2946.0325,2946.007,2944.3206,2944.3992,2944.5303,2944.5515,2939.8743,2939.852,2939.7378,2933.7869,2934.044,2933.9226,2925.9553,2925.7314,2925.753,2925.6738,2919.1519,2919.114,2918.9944,2914.1414,2914.176,2914.174,2911.3416,2911.379,2911.7183,2911.463,2904.5715,2908.3694,2901.8481,2891.121,2890.1438,2884.1619,2875.9597,2878.1602,2878.437
3522.637,3449.6265,3256.7844,3210.8564,3209.5474,3210.661,3213.084,3199.5505,3199.938,3200.2231,3188.6892,3189.6875,3189.1235,3168.3633,3168.2686,3167.3608,3166.7476,3150.8562,3151.579,3150.7444,3137.9668,3138.0164,3138.5164,3127.286,3127.6523,3127.8013,3128.1123,3114.0234,3114.0789,3114.7087,3099.3403,3100.208,3100.3647,3082.9578,3082.4084,3081.0625,3083.317,3066.783,3069.2148,3071.5288,3058.9502,3063.6968,3064.5515,3046.8738,3046.7534,3046.2344,3046.3696,nan,nan,nan,nan,nan,nan,nan,nan,nan,nan,nan,nan,nan,1862.0181,1863.0433,1862.9495,1847.3071,1847.8237,1851.3173,1852.5314,1842.2056,1842.2563,1843.6829,1839.3483,1839.6382,1840.1669,1837.2437,1838.1079,1837.9601,1838.1272,1834.9642,1834.0854,1834.0745,1833.2948,1833.5217,1833.9216,1833.1537,1833.9242,1831.6768,1830.302,1831.7073,1832.7764,1832.8215,1834.2802,1834.0013,1833.8776,1836.2073,1835.4669,1834.6952,1833.9813,1836.4458,1835.8536,1835.7976,1838.3776,1837.6014,1836.8828,nan,nan,2923.7422,2923.7422,2927.0837,2926.8916,2926.317,2947.8545,2945.574,2943.4631,2945.3196,2942.9456,2942.5222,2943.121,2951.531,2952.1248,2952.6587,2953.2332,2952.6484,2953.4683,2963.6643,2963.706,2964.0435,2964.2239,2965.0767,2964.8472,2964.7114,2966.551,2965.7788,2965.771,2968.441,2969.503,2967.216,2966.0403,2966.716,2965.3972,2965.1565,2962.2676,2962.2385,2962.166,2956.8594,2956.8682,2956.6196,2956.4746,2951.4158,2951.3877,2951.2603,2946.6943,2946.7473,2946.7117,2943.9824,2944.0332,2944.0986,2944.1099,2939.3066,2939.4084,2939.3162,2933.3474,2933.8638,2933.6677,2926.5466,2926.3308,2926.2517,2926.233,2919.6687,2919.682,2919.707,2914.5244,2914.5696,2914.609,2911.355,2911.4055,2911.746,2911.5164,2903.2395,2908.401,2902.0615,2889.3955,2888.4587,2881.8032,2872.1997,2874.6675,2874.734
3534.8853,3453.6555,3231.2446,3209.113,3208.8513,3209.5762,3212.1672,3198.7954,3199.4524,3199.4746,3189.1213,3189.8955,3188.9932,3167.671,3167.1277,3166.7085,3165.766,3150.5403,3149.957,3149.2463,3136.7776,3137.2166,3137.7292,3126.8176,3127.7004,3128.5718,3128.9663,3116.97,3116.606,3112.661,3094.534,3094.4453,3093.7732,3075.0342,3076.5115,3077.8994,3081.8347,3067.2915,3071.4163,3073.5986,3059.5066,3063.7615,3064.5667,3045.8213,3045.8206,3045.8198,3045.8196,nan,nan,nan,nan,nan,nan,nan,nan,nan,nan,nan,nan,nan,1861.7467,1861.8652,1862.5837,1846.8547,1848.0916,1851.9181,1854.0245,1841.3649,1839.996,1840.6534,1835.6211,1835.3848,1834.2258,1833.8595,1836.3812,1838.398,1838.3958,1835.6147,1835.2261,1835.2496,1834.4138,1834.1729,1832.8306,1831.876,1832.1125,1830.3206,1830.3973,1831.3984,1831.4678,1832.2314,1833.4106,1833.4563,1833.7849,1835.9009,1834.916,1834.0575,1833.7548,1836.6752,1836.3851,1836.1028,1838.361,1837.3666,1836.8545,nan,2923.7422,2923.7422,2923.7424,2927.041,2926.8186,2926.1812,2949.065,2947.1328,2944.2444,2945.0864,2943.6436,2943.0068,2943.3384,2951.4888,2952.2217,2952.6128,2953.156,2952.7888,2953.824,2963.6404,2963.5828,2963.9368,2964.0508,2965.047,2964.7434,2964.6306,2966.11,2965.6423,2965.566,2966.1724,2966.9631,2965.7837,2965.2017,2965.7505,2964.994,2964.818,2961.852,2961.8113,2961.7437,2956.662,2956.654,2956.5789,2956.4346,2951.368,2951.3237,2951.2036,2946.7432,2946.809,2946.7534,2944.076,2944.13,2944.1907,2944.2195,2939.49,2939.5598,2939.503,2933.9087,2934.1335,2934.0657,2926.502,2926.2407,2926.1355,2926.2773,2919.7832,2919.7886,2919.871,2914.6775,2914.8042,2914.7324,2911.3645,2911.4243,2911.7546,2911.4644,2903.427,2908.2737,2901.1697,2888.7544,2887.732,2881.477,2871.91,2874.4014,2874.4993
3529.1338,3409.272,3231.1887,3210.9148,3210.2463,3210.8809,3213.3953,3199.2947,3200.452,3201.2976,3190.5173,3191.187,3191.3057,3169.258,3168.112,3167.3318,3167.7815,3151.6187,3151.9304,3152.217,3138.1873,3138.2703,3137.9927,3126.4255,3126.3684,3127.6487,3127.8494,3114.874,3114.5977,3114.6921,3099.362,3099.9214,3099.6536,3083.3162,3082.9316,3081.2622,3083.154,3068.281,3069.7686,3071.3428,3058.7866,3063.8118,3064.9211,3046.7825,3046.3704,3046.0356,3045.931,nan,nan,nan,nan,nan,nan,nan,nan,nan,nan,nan,nan,nan,1862.3522,1862.0201,1861.9904,1846.2542,1848.7307,1850.5027,1849.509,1839.8387,1841.0153,1841.1208,1834.4296,1834.5465,1834.977,1831.9569,1832.6967,1834.7607,1837.0441,1835.3285,1835.1895,1835.0156,1832.7748,1831.8478,1831.2262,1831.9518,1831.5634,1829.7377,1830.6992,1831.8623,1832.0963,1832.1572,1833.7676,1833.3652,1833.273,1835.105,1834.7502,1834.1141,1833.5605,1836.713,1836.287,1836.0605,1838.8057,1837.5222,1836.8394,nan,nan,2923.7424,2923.7422,2927.0085,2926.8745,2926.1765,2949.8713,2948.6997,2945.5664,2944.3723,2944.3987,2943.617,2943.661,2951.6143,2952.1575,2952.5742,2953.2903,2952.9634,2953.7832,2963.5435,2963.463,2963.595,2963.867,2964.9365,2964.657,2964.6218,2966.1458,2965.7244,2965.5256,2965.8875,2966.3994,2965.7124,2965.2502,2965.6711,2964.9822,2964.8594,2962.0166,2961.878,2961.7961,2956.535,2956.3923,2956.349,2956.3237,2951.2625,2951.1692,2951.177,2946.7483,2946.8115,2946.7422,2944.1975,2944.2302,2944.2656,2944.2773,2939.6345,2939.7705,2939.6226,2933.8628,2934.331,2934.3555,2926.6233,2926.3582,2926.155,2926.3967,2919.949,2919.9592,2920.0962,2914.739,2914.668,2914.4143,2911.311,2911.3618,2911.672,2911.4885,2903.1416,2907.5195,2900.111,2887.7144,2887.4045,2881.5876,2871.8367,2873.8745,2873.552
3336.0671,3239.6545,3259.7983,3216.0295,3217.4226,3218.8684,3222.4954,3203.4026,3206.7722,3207.4963,3188.805,3189.007,3188.6997,3167.6907,3167.1272,3166.4797,3166.549,3150.8674,3150.4102,3151.7495,3139.6204,3137.9329,3136.942,3125.1875,3124.984,3125.3557,3128.8438,3120.2534,3128.43,3143.3948,3133.1965,3133.8813,3132.5825,3112.1826,3109.0652,3106.5654,3108.8206,3088.006,3100.506,3105.793,3082.294,3091.2808,3085.8877,3064.9233,3062.8176,3066.0752,3059.5242,nan,nan,nan,nan,nan,nan,nan,nan,nan,nan,nan,nan,nan,1862.6843,1862.6849,1861.4772,1844.1469,1847.3378,1849.6962,1850.0206,1841.1306,1842.1274,1842.2131,1837.8204,1837.4835,1836.7607,1833.7218,1832.9072,1832.0848,1833.4158,1830.6969,1830.7753,1830.318,1830.2664,1831.0262,1831.5507,1831.4769,1830.5651,1829.6346,1831.3124,1832.335,1832.1613,1832.0948,1833.0583,1833.7528,1833.2161,1834.9344,1834.6371,1834.447,1833.9619,1836.6079,1835.9156,1835.6716,1838.7002,1837.4115,1836.8474,nan,nan,2923.7422,2923.7422,2926.9565,2926.8276,2926.3533,2950.6355,2950.109,2946.5288,2944.969,2945.1648,2944.402,2943.9314,2951.948,2952.4521,2952.6624,2953.4739,2953.352,2953.7063,2963.4773,2963.3894,2963.41,2963.7617,2964.9238,2964.6843,2964.5994,2966.3113,2965.8484,2965.56,2965.9883,2966.4702,2965.7556,2965.2974,2965.895,2965.0676,2964.9705,2962.1272,2961.9753,2961.792,2956.5332,2956.476,2956.3184,2956.1816,2951.0273,2951.0735,2951.1707,2946.69,2946.6357,2946.646,2944.282,2944.3027,2944.2913,2944.31,2939.7954,2940.0105,2939.722,2933.8948,2934.915,2934.835,2927.07,2926.731,2926.567,2926.7363,2920.3218,2920.4587,2920.476,2914.9717,2914.789,2914.424,2911.2886,2911.2817,2911.5789,2911.6511,2901.6748,2905.9458,2899.3086,2886.5745,2886.4104,2882.9094,2871.697,2872.9922,2873.3394
3240.824,3221.7283,3209.5166,3204.5564,3204.035,3204.0823,3209.0654,3197.9136,3197.8164,3196.8752,3183.8542,3183.3093,3184.0242,3165.5234,3166.5444,3163.588,3155.6138,3140.0269,3138.5498,3139.132,3130.9045,3131.6875,3132.7139,3126.8303,3127.3655,3128.0083,3128.2021,3115.5293,3114.4126,3113.4534,3093.9531,3095.9138,3096.3389,3074.173,3077.894,3072.8389,3076.319,3056.5457,3055.559,3056.977,3048.3118,3052.7363,3047.3887,3048.6714,3048.8127,3048.6267,3048.7214,nan,nan,nan,nan,nan,nan,nan,nan,nan,nan,nan,nan,nan,1860.8457,1860.954,1860.7513,1839.9648,1840.575,1844.4869,1845.0638,1834.9718,1836.9133,1837.9899,1831.2306,1830.4315,1830.41,1826.954,1827.7819,1827.3774,1824.831,1823.7922,1823.6858,1823.5979,1824.675,1825.0288,1825.168,1825.2533,1825.3026,1827.6077,1827.8745,1828.2771,1827.926,1827.9666,1829.1246,1830.1582,1830.7657,1834.2148,1834.419,1834.327,1833.276,1836.6206,1835.3245,1835.011,1838.9368,1837.2064,1836.8339,1846.739,nan,nan,nan,2928.4143,2928.2166,2932.5193,2951.4902,2950.8477,2948.9438,2950.768,2950.2239,2949.5283,2949.481,2955.534,2955.768,2955.9507,2957.1912,2957.1719,2957.387,2963.376,2963.343,2963.4211,2963.675,2965.353,2965.1619,2965.089,2968.5547,2967.2957,2966.784,2970.09,2971.6611,2970.3284,2969.107,2972.0723,2970.0066,2968.7927,2965.5684,2965.5325,2965.0908,2960.1743,2960.2046,2959.9321,2959.8625,2956.0054,2956.239,2956.305,2956.255,2955.876,2955.3804,2956.418,2955.2795,2954.8425,2954.0786,2952.7307,2953.3962,2951.4656,2942.2388,2943.045,2941.5142,2927.5645,2927.0403,2926.6282,2926.4678,2919.5754,2919.67,2919.271,2914.1335,2913.9163,2913.8896,2922.8318,2920.448,2912.589,2924.927,2931.1445,2918.969,2900.6016,2879.9558,2879.3108,2874.8606,2864.7148,2866.534,2866.5093
3224.5046,3219.657,3223.8977,3208.19,3207.4092,3207.3677,3208.5894,3194.69,3195.3662,3194.528,3178.2744,3178.5476,3178.5715,3155.2314,3153.0757,3151.4148,3149.3992,3139.0422,3138.5583,3138.4746,3132.0984,3131.8772,3132.077,3126.17,3126.3687,3126.814,3126.7634,3113.4824,3113.3103,3114.2551,3095.8203,3096.1138,3095.556,3073.8442,3073.4727,3071.6821,3075.3545,3056.3274,3055.5059,3057.6685,3049.427,3051.3047,3045.64,3049.0916,3049.1926,3049.101,3049.1133,nan,nan,nan,nan,nan,nan,nan,nan,nan,nan,nan,nan,nan,1860.7305,1860.9045,1861.0039,1840.1135,1840.7139,1843.5626,1844.6956,1835.0497,1836.1587,1836.4338,1831.0564,1830.2097,1830.4652,1826.5023,1826.4998,1827.6184,1826.3627,1824.0521,1824.1188,1824.1821,1824.8806,1825.0256,1824.8716,1825.3602,1826.7594,1827.6218,1827.7764,1828.295,1827.9773,1827.9829,1829.3379,1829.8966,1830.4408,1834.1716,1834.31,1834.147,1833.0779,1836.9098,1835.4976,1835.0933,1839.2108,1837.2139,1836.8114,1846.7391,1846.739,1846.739,1846.7391,nan,2925.8228,2931.6858,2952.62,2952.3933,2949.8293,2951.1455,2951.1558,2950.6514,2950.004,2955.7922,2956.114,2956.0432,2957.2861,2957.3655,2957.499,2963.3286,2963.3086,2963.3726,2963.5793,2965.322,2965.1519,2965.0718,2968.8345,2967.1404,2966.6099,2970.0923,2972.0596,2969.5496,2968.3623,2971.9006,2969.3044,2967.5786,2964.5632,2963.9473,2963.4802,2959.0925,2959.1697,2959.1116,2959.0566,2954.7131,2954.5015,2954.5286,2952.265,2952.694,2952.6362,2952.2542,2951.367,2950.1023,2949.6812,2949.4683,2954.1167,2953.556,2940.9,2942.7046,2950.3635,2928.5303,2927.9653,nan,nan,nan,nan,nan,nan,nan,nan,2936.3105,2936.3105,2936.3105,3358.6248,2936.3105,2936.208,2899.0918,2878.685,2878.2407,2874.8887,2864.3618,2866.5796,2865.691
3236.2546,3235.7407,3236.3025,3211.889,3211.1392,3210.6533,3211.3213,3192.46,3192.425,3192.5461,3177.1482,3177.1055,3177.2236,3154.285,3153.8933,3152.098,3152.2415,3141.3308,3141.1328,3140.3584,3132.4316,3132.2593,3132.5918,3125.965,3126.2214,3126.8542,3127.07,3113.3867,3113.7478,3114.1025,3094.68,3094.9583,3094.5032,3073.003,3072.54,3071.189,3073.9897,3055.2773,3053.9915,3055.166,3047.7173,3048.1113,3043.8455,3048.9163,3048.9648,3049.6155,3049.767,nan,nan,nan,nan,nan,nan,nan,nan,nan,nan,nan,nan,nan,1861.0928,1861.3348,1861.0406,1840.2408,1840.7943,1843.2732,1846.6086,1837.5077,1838.9695,1838.7028,1832.712,1831.2887,1830.4323,1826.6144,1826.3923,1826.9917,1828.1024,1825.8412,1826.4294,1825.4199,1824.9624,1825.1168,1824.9666,1827.4883,1828.4855,1828.6406,1828.4517,1829.0662,1828.4962,1828.4192,1830.0371,1830.1694,1830.6788,1834.4001,1834.2385,1833.5676,1833.3314,1836.9034,1835.5206,1835.1993,1839.5035,1837.2888,1836.8276,1846.7391,1846.7391,1846.7391,1846.7391,nan,nan,2932.268,2953.502,2953.3975,2950.5593,2951.382,2951.73,2951.2095,2950.2368,2955.9548,2956.3213,2956.0508,2957.185,2957.6292,2957.532,2963.3086,2963.2803,2963.3672,2963.69,2965.273,2965.14,2965.0537,2968.7341,2967.0881,2966.9966,2970.8276,2971.516,2970.264,2969.0,2973.72,2970.326,2969.1562,2967.2488,2967.653,2967.7847,2962.0552,2961.78,2962.4915,2962.7454,2962.9785,2962.7725,2962.5798,2974.2354,2975.386,2975.4526,2992.41,2992.8577,2992.915,2992.7344,2997.7468,2998.667,2996.7158,nan,nan,nan,nan,nan,nan,nan,nan,nan,nan,nan,nan,nan,2936.422,2938.754,2936.4067,nan,2937.4795,2936.4275,2896.616,2878.6758,2877.5623,2875.3157,2864.9373,2866.3843,2865.5898
3232.0842,3235.6729,3244.3423,3212.9517,3212.0647,3212.1018,3212.8413,3192.7793,3192.72,3193.6487,3177.2583,3177.9187,3177.4368,3154.88,3154.2866,3153.6694,3153.228,3142.4978,3142.0908,3141.8838,3133.1477,3133.311,3133.5334,3126.1047,3126.7124,3127.78,3128.274,3115.4836,3115.921,3115.5945,3094.4167,3093.45,3091.3237,3067.3293,3066.3135,3065.608,3068.9487,3050.804,3049.9143,3050.7246,3045.9968,3046.4417,3042.3054,3049.499,3049.685,3049.9685,3049.9624,nan,nan,nan,nan,nan,nan,nan,nan,nan,nan,nan,nan,nan,1862.2533,1861.7314,1860.9601,1840.388,1840.9318,1843.3108,1848.3392,1838.4868,1838.7863,1838.9751,1833.177,1834.1835,1833.5631,1830.1295,1828.3315,1828.2227,1829.6805,1828.206,1828.1929,1827.2661,1826.141,1826.7336,1826.589,1828.6183,1826.3511,1826.1008,1826.3596,1828.1715,1828.8418,1828.25,1830.3226,1830.2583,1830.4586,1833.4917,1833.6378,1833.6427,1833.3959,1836.6189,1835.4269,1835.1707,1839.75,1837.3087,1836.8262,1846.739,1846.739,1846.739,1846.7391,nan,nan,2933.9214,2954.7446,2954.7256,2951.545,2952.0166,2952.5508,2951.5757,2950.441,2956.0686,2956.307,2955.8196,2957.2705,2957.832,2957.512,2963.3103,2963.301,2963.3723,2963.6858,2965.2546,2965.1135,2965.0125,2968.6255,2966.6277,2966.8064,2978.4802,2976.5818,2977.6414,2976.8342,2977.6846,2979.2202,2976.5618,2970.316,2969.7512,2968.4124,2961.0686,2961.9253,2961.6958,2961.6885,2969.5593,2974.587,2998.0894,3080.453,3092.6877,3148.8433,3219.2532,3251.055,3265.2703,3264.8892,3278.8176,3274.902,3278.787,3262.2148,nan,nan,nan,nan,nan,nan,nan,nan,nan,nan,nan,nan,3141.4553,3187.658,2991.8127,nan,2999.6638,2936.5522,2896.7632,2877.7898,2877.0176,2874.883,2865.2969,2866.4563,2866.1213
3230.2498,3235.642,3233.9548,3208.9604,3207.3003,3206.5051,3206.751,3182.8542,3182.3665,3182.7808,3164.5564,3164.055,3161.5535,3137.2642,3135.3823,3134.2878,3133.7405,3122.0518,3121.6394,3121.3809,3121.5735,3121.3503,3120.8752,3122.4417,3122.287,3122.221,3122.1138,3110.1646,3109.6074,3107.7734,3078.4553,3078.6484,3076.9575,3046.9421,3045.2468,3046.0923,3049.3213,3032.3071,3031.9697,3033.5781,3026.6763,3024.4177,3024.5698,3031.7468,3030.6074,3024.589,3024.525,3017.6907,nan,nan,nan,nan,nan,nan,nan,nan,nan,nan,nan,nan,1860.6251,1859.9961,1859.7898,1837.3319,1837.5686,1840.1289,1844.73,1831.1267,1832.0775,1832.9719,1826.0963,1828.6395,1828.9459,1825.681,1825.657,1825.3069,1825.8021,1823.5413,1823.5054,1823.5793,1824.1299,1824.5881,1825.081,1825.1094,1824.2416,1823.9874,1824.1198,1826.8048,1826.9929,1827.0168,1830.1202,1829.8281,1829.388,1833.8158,1833.6404,1833.0905,1833.7845,1837.3237,1835.874,1835.4875,1839.9911,1837.5621,1837.1998,1848.5454,1848.6089,1848.902,1848.2881,nan,nan,2946.66,2955.8928,2955.8328,2954.7825,2957.4868,2957.2285,2956.4148,2955.6687,2958.69,2958.589,2958.4524,2960.308,2960.5142,2960.4658,2963.2815,2963.239,2963.4087,2963.806,2965.6172,2965.4543,2965.3677,2970.3853,2968.7634,2968.8054,2989.3694,2995.4888,3031.719,3050.6147,3198.6553,3201.2031,3188.8264,3222.0955,3220.5415,3241.942,3271.3816,3265.999,3263.982,3271.8965,3288.6172,3289.1663,3288.7864,3293.7942,3293.1692,3292.2297,3306.8997,3303.333,3300.8325,3300.3833,3320.7737,3310.3489,3349.5237,3758.7854,3751.0503,3770.571,3817.6204,3796.014,3781.604,3783.3054,3803.178,3785.571,3786.6697,3776.3557,3775.0652,3774.7727,3638.5833,3651.7979,3525.4807,3780.246,3530.3354,3358.7788,2955.057,2870.1814,2870.4895,2868.5764,2859.5469,2860.1646,2860.0107
3235.2837,3239.2305,3238.7446,3211.1636,3209.475,3209.53,3212.2593,3177.741,3178.248,3177.772,3155.7212,3155.882,3155.294,3130.8638,3130.5032,3130.7583,3131.2324,3121.553,3121.8655,3122.3164,3121.8835,3120.9973,3120.578,3122.1138,3122.4084,3122.6855,3122.266,3108.923,3107.975,3105.6587,3080.3833,3078.476,3074.9087,3047.3252,3045.824,3049.7085,3051.6782,3036.647,3037.5955,3037.5464,3029.2058,3027.4812,3025.3608,3030.8455,3026.9602,3023.9204,3024.105,3017.6907,nan,nan,nan,nan,nan,nan,nan,nan,nan,nan,nan,nan,1860.163,1859.755,1859.6403,1840.7115,1837.5386,1841.1826,1843.5198,1830.2986,1831.439,1833.7701,1824.4907,1827.5084,1827.5927,1824.2715,1825.5035,1825.7676,1825.736,1823.6049,1823.3029,1823.245,1824.4584,1824.8291,1825.0333,1824.4756,1823.752,1823.6584,1823.7113,1826.5669,1826.2524,1826.801,1830.5164,1830.3444,1830.1003,1834.523,1834.2247,1833.5873,1832.9669,1837.252,1835.7402,1835.3168,1839.8909,1837.5868,1837.1603,1848.3206,1848.175,1848.5896,1847.5225,nan,nan,2949.104,2957.6519,2957.6416,2956.0432,2957.9119,2957.8813,2957.2727,2956.3293,2958.6956,2958.618,2958.4836,2960.1687,2960.5117,2960.452,2963.2612,2963.2417,2963.271,2963.6428,2965.5393,2965.444,2965.3184,2970.2986,2968.7932,2968.563,2989.3875,2990.389,3114.9019,3148.8179,3244.0723,3245.9365,3248.5327,3261.7114,3260.776,3261.2961,3276.5654,3277.0037,3278.4607,3278.954,3290.8914,3290.908,3290.6982,3295.314,3294.821,3294.2742,3307.7183,3303.6162,3300.8538,3299.7449,3319.2617,3311.4753,3346.2524,3750.25,3762.6743,3782.311,3810.8809,3800.8887,3793.7158,3790.8308,3804.5234,3791.5388,3793.6843,3775.2617,3774.6921,3774.7363,3637.9539,3650.075,3613.7778,3780.2302,3569.1165,3358.7786,2913.0256,2866.1145,2865.27,2867.856,2859.5771,2859.7349,2859.5686
3241.6953,3243.9358,3245.1392,3214.3164,3213.1428,3211.398,3209.7578,3177.3855,3177.6257,3178.263,3156.3738,3156.1758,3155.5742,3132.526,3132.836,3134.2383,3135.8267,3126.4878,3126.5278,3126.8894,3124.3633,3124.8008,3125.2234,3123.6162,3123.6804,3123.5117,3123.698,3110.2632,3109.8667,3108.8965,3084.8992,3083.359,3080.194,3055.2712,3053.864,3053.857,3054.7651,3041.357,3040.936,3041.3047,3033.1274,3033.594,3030.3386,3031.7183,3028.916,3027.175,3027.1465,3017.691,3017.6907,3017.6907,nan,nan,nan,nan,nan,nan,nan,nan,nan,nan,1860.4395,1859.7351,1860.1035,1853.3057,1837.648,1841.0646,1843.4846,1830.6017,1831.3032,1833.1764,1824.3683,1827.0504,1826.7659,1823.658,1824.4326,1824.3866,1824.5267,1823.6504,1823.5876,1823.432,1824.2151,1824.465,1824.4911,1824.4519,1824.1653,1824.1028,1824.1027,1826.28,1826.2885,1826.7689,1831.2705,1831.4465,1830.6803,1834.4578,1834.1088,1833.8977,1833.2537,1837.0768,1835.5627,1835.2235,1839.7488,1837.444,1837.0586,1847.9608,1848.1942,1848.4512,1847.2814,nan,nan,2947.468,2957.946,2957.95,2956.12,2958.0088,2958.0237,2957.371,2956.301,2958.7075,2958.6387,2958.5327,2960.1453,2960.467,2960.5417,2963.2556,2963.2102,2963.2275,2963.5073,2965.6133,2965.5293,2965.3677,2970.327,2968.5574,2968.0376,2987.1343,2990.3574,3131.6755,3100.8813,3234.3054,3237.553,3240.184,3262.3914,3264.4016,3261.5286,3275.7168,3274.905,3274.4663,3274.1333,3287.9673,3287.7476,3286.9568,3292.661,3291.7349,3290.5464,3303.4595,3300.785,3299.371,3300.3901,3323.2717,3315.5645,3404.01,3836.7844,3834.4873,3824.4084,3802.8562,3810.4258,3817.053,3801.9382,3806.4492,3797.9524,3804.004,3772.6392,3771.0242,3769.7776,3749.7197,3742.0435,3734.7317,3777.867,3672.9182,3358.7786,2897.2349,2865.1384,2864.3667,2865.1511,2858.6028,2859.7761,2860.0498
3236.3186,3239.7563,3239.5994,3210.7893,3209.5212,3207.1248,3206.065,3176.529,3176.5854,3177.1213,3155.7231,3155.563,3155.3164,3131.3328,3131.2715,3131.1753,3130.016,3118.7773,3117.9973,3119.1663,3115.3115,3115.2986,3115.2266,3114.3489,3115.0696,3115.7515,3116.21,3104.5854,3105.9773,3105.0813,3076.7407,3074.178,3069.868,3044.1772,3043.2148,3043.8972,3047.605,3028.3203,3027.1348,3027.9795,3022.1882,3021.1643,3021.2976,3023.7034,3020.7632,3018.7217,3018.9993,3018.9658,3010.495,3019.3376,3049.6746,3049.6746,3049.6746,nan,nan,nan,nan,nan,nan,nan,1859.6708,1858.9326,1859.0303,1844.3503,1836.0806,1839.9093,1842.9615,1832.7245,1832.2562,1834.103,1825.1826,1826.8875,1827.2542,1823.9457,1823.8033,1822.911,1822.289,1822.2916,1822.1604,1822.8607,1825.9097,1826.1456,1826.3079,1826.1462,1826.0494,1826.0249,1825.8933,1828.0238,1827.963,1828.1552,1831.7527,1832.4874,1832.1652,1835.2255,1834.6653,1834.6703,1834.1191,1838.048,1836.2102,1835.7689,1841.3564,1839.076,1838.3184,1852.7711,1852.6022,1852.1604,1851.423,nan,nan,2957.1558,2957.0432,2957.045,2956.9827,2957.1797,2957.1602,2957.158,2957.1506,2958.0068,2957.9167,2957.7615,2959.9585,2960.1724,2960.202,2963.1357,2963.1677,2963.0837,2963.353,2965.6177,2965.5083,2965.2957,2969.8774,2968.248,2967.7314,2984.4207,2988.4429,3117.6584,3144.0757,3262.0652,3262.4958,3261.0803,3278.0554,3278.0378,3274.739,3285.4673,3284.4778,3283.8623,3283.2764,3292.3286,3292.0723,3291.7307,3295.9656,3294.5144,3293.8958,3303.4705,3300.8542,3299.1443,3299.8735,3347.6558,3328.9316,3487.8535,3796.5051,3801.5085,3792.7012,3729.1562,3729.446,3737.6638,3742.5005,3749.4192,3747.7383,3744.6565,3747.2073,3729.529,3720.0193,3797.2131,3789.0073,3780.9521,3782.497,3833.875,nan,3026.8472,2855.5825,2855.4702,2856.3313,2853.523,2854.4954,2854.5217
3237.1538,3240.898,3241.3,3211.3857,3209.622,3208.3796,3207.1714,3176.9612,3177.0173,3177.1506,3156.6282,3156.9,3156.781,3132.7969,3132.7368,3132.7014,3132.0403,3121.941,3121.6975,3121.9858,3120.1997,3119.6553,3119.083,3120.6265,3121.2068,3121.6096,3121.911,3111.3723,3112.6926,3110.6182,3080.4082,3080.573,3077.2268,3047.314,3044.8965,3045.9683,3045.9663,3028.5918,3026.978,3027.8699,3021.6094,3020.3684,3020.4438,3023.9434,3020.5195,3018.312,3018.6821,3018.5496,3010.3735,3015.8914,3049.6746,3049.6746,3049.6746,nan,nan,nan,nan,nan,nan,nan,1859.1244,1858.9602,1859.423,1838.5233,1836.0864,1839.6044,1842.5302,1831.7168,1832.0042,1836.5856,1826.7126,1826.731,1827.5847,1824.299,1823.462,1822.8734,1823.1259,1821.9631,1823.5432,1823.9479,1826.5404,1826.5674,1826.3297,1825.6766,1825.7373,1825.8673,1825.9714,1828.2017,1828.3118,1828.323,1830.978,1831.06,1830.944,1834.9402,1834.71,1834.3629,1833.6868,1837.7086,1836.2521,1835.7935,1840.7102,1838.8398,1838.3762,1854.0474,1852.0121,1851.5151,1848.03,nan,nan,2957.0027,2957.0784,2957.058,2957.0127,2957.192,2957.1838,2957.1624,2957.1367,2957.9802,2957.9075,2957.7515,2959.9185,2960.2244,2960.1162,2963.1414,2963.1536,2963.0854,2963.4028,2965.667,2965.5642,2965.354,2969.649,2967.483,2967.2173,2986.725,2988.3494,3094.6384,3161.2231,3262.77,3262.5825,3261.1602,3276.8618,3278.5251,3274.784,3284.991,3283.6743,3283.865,3283.4316,3292.5737,3292.3025,3292.2563,3300.9485,3298.7593,3296.4246,3310.946,3304.9429,3303.0437,3301.8577,3345.1746,3327.4373,3461.6792,3794.7554,3793.1287,3788.5413,3721.979,3736.0642,3744.3484,3742.046,3745.3823,3731.546,3731.234,3753.4617,3727.4006,3717.4556,3796.5752,3786.2366,3778.9143,3779.7092,3836.04,nan,3011.5986,2854.5664,2854.3281,2855.9336,2853.58,2854.0657,2854.164
3239.0999,3242.4385,3242.3718,3212.7407,3211.0698,3210.058,3210.209,3179.504,3179.4893,3180.3645,3158.68,3158.5728,3157.6384,3133.468,3131.6594,3130.7295,3130.8953,3121.812,3121.445,3121.5576,3120.6562,3120.393,3119.4622,3121.571,3121.8464,3121.9211,3121.938,3112.338,3112.8032,3110.0583,3079.884,3079.945,3076.5757,3046.8384,3044.2043,3044.4128,3045.8826,3028.546,3026.8582,3027.6492,3021.4763,3020.3599,3020.2695,3024.036,3020.5247,3018.4912,3018.7844,3018.6226,3010.3743,3018.0068,3049.6746,3049.6746,3049.6746,nan,nan,nan,nan,nan,nan,nan,1859.1531,1859.2263,1859.6199,1836.8632,1836.0814,1839.7772,1842.2482,1830.885,1831.6726,1836.1012,1826.7268,1826.9106,1827.4373,1824.0033,1823.611,1823.5077,1824.2155,1823.0271,1823.8925,1823.6105,1826.433,1826.2369,1825.5602,1825.2213,1825.0521,1825.156,1825.408,1827.6831,1828.1571,1827.7429,1829.7139,1829.8796,1830.1122,1834.7638,1834.4468,1834.0284,1833.4972,1837.4896,1836.2627,1835.9401,1840.5271,1838.8868,1838.4966,1855.6539,1852.5662,1848.8651,nan,nan,nan,2956.9468,2957.105,2957.0935,2957.0354,2957.2104,2957.201,2957.1467,2957.13,2957.962,2957.9182,2957.7024,2959.9084,2960.2158,2960.116,2963.1465,2963.1702,2963.0618,2963.4736,2965.715,2965.543,2965.3452,2969.1194,2966.5354,2966.3013,2990.3235,2986.8767,3080.449,3175.3809,3262.8433,3262.611,3260.957,3276.2314,3278.6274,3275.4854,3285.0562,3284.1155,3283.736,3283.93,3292.751,3292.4146,3292.0833,3297.0586,3298.1445,3298.144,3313.9448,3309.0383,3307.0195,3305.3442,3343.1746,3326.6663,3399.714,3788.1658,3793.799,3791.344,3721.557,3740.7017,3751.8853,3745.863,3742.832,3732.6873,3723.502,3761.9956,3728.9648,3718.8743,3789.187,3779.6067,3773.429,3777.6572,3828.4465,nan,2943.8386,2852.6448,2852.5793,2855.4207,2853.6465,2853.6523,2853.9197
3243.111,3246.0828,3245.865,3217.4053,3216.2874,3213.5754,3211.1104,3177.574,3177.4883,3178.1436,3156.1746,3156.1968,3156.135,3132.481,3131.966,3131.7769,3132.5889,3122.3242,3122.952,3123.0317,3120.47,3120.6106,3120.441,3122.272,3122.4863,3122.695,3122.7446,3113.866,3112.5571,3108.5537,3079.0728,3078.8257,3075.9949,3046.0798,3043.4248,3044.5488,3044.3486,3029.8098,3027.5913,3028.3977,3022.3472,3021.7307,3021.485,3025.357,3022.2485,3020.5002,3020.5518,3017.837,3011.3337,3017.9517,3049.6746,3049.6746,3049.6746,nan,nan,nan,nan,nan,nan,nan,1859.3362,1859.4355,1859.991,1837.7616,1836.051,1838.9884,1842.1842,1831.0442,1831.0219,1834.8602,1826.484,1826.8314,1827.4164,1823.96,1823.7018,1824.3309,1824.9934,1823.7788,1823.8606,1823.5505,1826.0837,1825.73,1825.1797,1825.5302,1825.4677,1825.1655,1824.8237,1826.7008,1826.705,1827.0868,1830.2915,1830.4656,1830.5065,1834.8468,1834.5858,1834.0496,1833.3014,1837.2971,1836.1313,1835.9038,1841.3158,1839.1766,1838.4905,1854.4146,1850.462,1847.1509,nan,nan,nan,2956.8213,2957.111,2957.112,2957.0393,2957.2227,2957.2056,2957.1594,2957.1177,2957.9583,2957.9033,2957.668,2959.9639,2960.3137,2959.9846,2963.1057,2963.1455,2963.0938,2963.4573,2965.7136,2965.4788,2965.3154,2969.0908,2966.584,2966.2253,2973.3826,2987.6045,3083.0752,3180.8684,3262.5632,3262.2834,3260.6926,3276.2966,3278.397,3275.0032,3285.0605,3283.7817,3282.7146,3281.982,3291.315,3290.6816,3290.4172,3295.5498,3295.2976,3295.0579,3310.9937,3309.435,3307.2544,3309.503,3347.045,3339.956,3402.6729,3694.3516,3824.6138,3823.265,3737.5222,3733.6016,3746.34,3756.3887,3746.3174,3741.0088,3732.494,3777.481,3736.6648,3724.4429,3777.6675,3771.2332,3768.811,3777.3872,3795.2605,nan,3016.354,2852.6929,2852.6106,2854.9597,2853.7039,2853.7227,2853.9324
3241.7053,3243.042,3243.3052,3220.1091,3219.504,3216.6284,3209.3574,3179.6406,3179.8533,3180.2366,3159.7505,3160.0803,3160.0955,3135.6677,3134.9897,3135.348,3136.6577,3118.7578,3118.8513,3118.615,3108.9424,3108.7358,3108.5735,3104.6868,3105.534,3105.2876,3104.935,3098.4849,3097.6582,3093.4524,3065.675,3062.6458,3061.0972,3036.5032,3035.5457,3035.6272,3040.507,3024.6929,3027.5884,3027.2505,3018.293,3018.4038,3019.0176,3018.481,3017.122,3016.801,3017.469,3014.3857,3009.903,3020.202,3028.5007,3027.6292,3037.3745,nan,nan,nan,nan,nan,nan,nan,1858.859,1858.8591,1858.8589,1840.9629,1836.2892,1838.7305,1839.6652,1833.042,1832.9506,1834.9486,1829.4816,1829.506,1829.6013,1826.4774,1826.8635,1827.1454,1827.6594,1826.0894,1826.6172,1826.3378,1827.2172,1827.0635,1826.7665,1827.6433,1827.696,1826.8992,1826.38,1829.5575,1829.4781,1829.126,1831.8444,1832.3102,1832.1802,1835.3762,1835.1926,1834.9904,1834.3954,1837.5618,1836.325,1836.2339,1841.9553,1839.2028,1838.5398,1857.5972,1855.8141,nan,nan,nan,nan,2955.523,2956.2642,2956.2634,2956.1746,2956.362,2956.3625,2956.2678,2956.2046,2957.2356,2957.1926,2956.9282,2959.2747,2959.8105,2959.3647,2962.7407,2962.7598,2962.657,2962.9856,2965.4355,2965.182,2965.019,2968.0254,2966.34,2966.0247,2968.6038,2973.462,3086.745,3155.4834,3262.4497,3262.6152,3260.7932,3276.8423,3278.099,3275.6262,3285.8967,3284.8118,3284.3967,3284.024,3292.5234,3292.2708,3291.9263,3300.2114,3299.1367,3298.3533,3317.5017,3312.2144,3309.3994,3308.6187,3351.6326,3354.7317,3404.2344,3561.3928,3621.2676,3720.313,3670.8472,3656.692,3682.9111,3698.5918,3697.1934,3711.5698,3697.017,3717.1167,3700.3223,3682.403,3740.2842,3747.349,3734.0244,3747.874,3732.7783,nan,nan,2852.423,2852.433,2851.9329,2854.103,2854.2065,2854.0198
3242.742,3243.7324,3244.0393,3221.2888,3220.8042,3218.7734,3210.1572,3180.3843,3180.3262,3180.9006,3160.0488,3160.0447,3160.0325,3136.0576,3135.92,3137.2617,3137.566,3119.5164,3119.777,3119.271,3109.9812,3109.8384,3109.5376,3107.2715,3107.455,3107.1575,3106.393,3098.7898,3097.9604,3093.4104,3064.8032,3063.5276,3062.79,3037.5466,3036.8435,3035.0078,3038.755,3025.2917,3026.6074,3026.464,3018.194,3018.1387,3018.9148,3019.1304,3017.2866,3016.621,3017.3027,3015.296,3009.8953,3018.7175,3030.828,3032.4204,3036.5774,nan,nan,nan,nan,nan,nan,nan,nan,1858.859,nan,1843.0359,1836.2588,1839.3901,1841.6953,1832.6492,1832.3759,1834.5858,1828.7399,1829.4137,1829.4163,1825.8071,1826.0675,1826.006,1827.4299,1826.1019,1826.7153,1825.8727,1826.7965,1826.65,1826.4163,1827.1742,1827.271,1826.5782,1826.4335,1829.1353,1829.0134,1829.0868,1831.2792,1832.8704,1832.7653,1835.5134,1835.141,1834.8817,1834.2755,1837.5546,1836.2186,1836.2996,1842.1737,1839.3145,1838.5587,1854.9425,1853.0559,nan,nan,nan,nan,2955.4333,2956.2666,2956.2976,2956.1646,2956.3464,2956.346,2956.275,2956.1965,2957.2368,2957.1443,2956.9263,2959.2607,2959.9314,2959.3757,2962.7605,2962.8132,2962.7441,2962.9736,2965.4614,2965.1958,2964.9946,2968.1316,2966.3845,2966.035,2968.684,2973.5483,3077.3987,3148.1719,3262.8774,3263.0027,3261.2207,3277.3826,3278.3977,3275.8179,3286.109,3284.8662,3284.0647,3283.5325,3292.8406,3292.1943,3291.7644,3299.832,3299.8687,3299.2559,3322.4805,3321.9507,3312.1536,3309.1677,3345.0103,3330.9456,3375.0283,3598.755,3634.4993,3670.9438,3667.5615,3682.3992,3716.2878,3727.9578,3730.3777,3737.671,3734.3813,3729.5378,3717.0354,3707.9453,3792.2131,3785.2993,3777.295,3779.4944,3830.1785,3548.6814,nan,2852.361,2852.3926,2851.7812,2854.3218,2854.4038,2854.1233
3244.2368,3244.8816,3244.6353,3222.23,3221.233,3221.0444,3212.0525,3180.79,3180.4702,3180.605,3159.8428,3160.7258,3161.3762,3138.9846,3137.9893,3138.7544,3138.2346,3118.9163,3118.3528,3117.746,3111.2383,3111.167,3110.5615,3109.3362,3109.1265,3108.6516,3107.4634,3091.531,3089.7388,3086.8516,3059.142,3057.2422,3058.365,3035.656,3036.9255,3034.2979,3033.1992,3024.4326,3025.6829,3026.0278,3017.8376,3017.6519,3018.5261,3019.375,3017.277,3016.5625,3017.291,3015.8625,3010.1934,3019.3838,3030.6267,3031.9795,3036.6445,nan,nan,nan,nan,nan,nan,nan,nan,nan,nan,1858.836,1836.464,1838.7332,1843.8531,1832.6046,1831.746,1834.123,1828.374,1829.0851,1828.9587,1825.795,1825.7374,1825.8953,1827.2633,1825.8353,1826.2744,1825.1868,1826.0903,1826.1643,1826.4861,1826.9801,1826.843,1826.7272,1826.8711,1829.346,1829.5769,1829.5493,1832.2694,1832.9232,1832.467,1835.3635,1834.971,1834.6271,1834.1725,1837.4918,1836.0942,1836.1642,1842.086,1839.5273,1838.7446,1853.278,1852.7976,nan,nan,nan,nan,nan,2956.2668,2956.2966,2956.167,2956.3425,2956.3386,2956.265,2956.1738,2957.2402,2957.1594,2957.041,2959.2793,2959.9604,2959.255,2962.7122,2962.8,2962.7917,2963.0447,2965.455,2965.2434,2965.0037,2968.1455,2966.4194,2966.0283,2968.9407,2974.5154,3071.988,3143.7646,3263.0278,3262.9727,3261.378,3278.8984,3278.3271,3275.6086,3286.0005,3284.9402,3283.9634,3283.2017,3295.5747,3294.9636,3292.6433,3300.8477,3296.2317,3304.282,3350.0916,3345.056,3340.7266,3328.308,3351.2634,3335.885,3328.8003,3636.5598,3675.1736,3681.026,3671.0176,3675.0276,3702.957,3721.6326,3728.4446,3740.2195,3736.4512,3722.433,3705.4514,3707.6494,3792.9275,3787.6123,3778.3103,3778.2112,3833.1252,3548.6924,nan,2851.6296,2851.6992,2851.6982,2854.5034,2854.5144,2854.2073
3244.0183,3245.508,3244.8533,3221.0122,3222.126,3221.5732,3213.6833,3181.1423,3180.253,3180.7397,3159.7324,3160.6863,3161.334,3138.771,3139.9902,3140.1155,3140.8267,3122.7507,3123.0671,3120.956,3105.578,3101.532,3099.8833,3086.7793,3087.3699,3087.3315,3088.7124,3075.603,3075.9302,3076.3137,3060.779,3057.624,3045.481,3027.3738,3025.6143,3039.6533,3029.873,3026.4924,3025.5679,3026.847,3017.245,3017.2727,3018.0125,3019.6714,3017.428,3016.5654,3017.4526,3015.9417,3010.59,3020.218,3030.1968,3031.1182,3037.3416,nan,nan,nan,nan,nan,nan,nan,nan,nan,nan,nan,1839.1871,1838.3927,1841.2946,1831.7346,1831.538,1833.4165,1827.9437,1829.4576,1829.5889,1825.686,1825.8531,1826.4021,1825.7905,1824.9375,1824.4834,1824.4875,1826.3369,1826.3035,1826.4939,1827.2029,1827.0648,1827.0455,1827.4097,1829.994,1829.9093,1829.7775,1832.1809,1832.1666,1831.7379,1835.0961,1834.7993,1834.4138,1834.0099,1837.0383,1835.8728,1835.9944,1841.6925,1839.5394,1838.9155,1852.7944,nan,nan,nan,nan,nan,nan,2956.263,2956.308,2956.1877,2956.3765,2956.3208,2956.2512,2956.1846,2957.226,2957.189,2957.0378,2959.2515,2959.89,2959.3552,2962.7808,2962.8489,2962.7444,2962.976,2965.4873,2965.213,2964.9863,2968.212,2966.4568,2966.0088,2969.1365,2974.3262,3077.181,3132.2,3264.0916,3263.271,3261.646,3279.2449,3278.0938,3276.0764,3285.7817,3285.2034,3284.0476,3283.1904,3292.7114,3291.723,3294.5808,3305.5847,3308.4634,3301.9343,3322.5496,3328.0964,3327.5923,3331.9463,3359.357,3343.0312,3341.4885,3642.068,3682.9067,3655.3345,3661.467,3668.1064,3676.3843,3697.5134,3699.1108,3710.3274,3706.317,3675.0107,3672.8938,3691.8374,3768.289,3762.5686,3732.1697,3738.481,3731.0962,3549.9,nan,2851.598,2851.785,2851.696,2854.4863,2854.5176,2854.1858
3246.3818,3246.7297,3246.631,3234.744,3232.8076,3232.4353,3228.9595,3207.4758,3204.9539,3209.3237,3199.6377,3207.6936,3212.7046,3228.9788,3226.5942,3225.9163,3228.6555,3272.0955,3274.6743,3272.782,3292.6877,3292.5208,3291.268,3285.6904,3283.3972,3284.9912,3284.223,3265.0942,3266.1536,3268.9346,3249.8687,3252.3826,3252.2314,3185.544,3179.0403,3239.6973,3239.1633,3059.5293,3025.9976,3027.8367,3013.5378,3013.3313,3014.299,3014.4346,3012.7473,3012.3547,3013.4749,3010.1104,3004.7275,3014.6426,3019.4482,3019.7166,3028.882,nan,nan,nan,nan,nan,nan,nan,nan,nan,nan,nan,nan,1836.6647,1836.6647,1833.0486,1833.4957,1834.0677,1830.9612,1831.6052,1831.2937,1827.8987,1828.3291,1828.877,1829.0321,1826.7695,1826.9152,1826.4707,1827.5276,1827.1586,1827.3307,1828.8107,1829.7765,1830.4154,1830.7681,1832.8807,1832.5968,1832.4971,1834.5701,1834.3755,1834.1349,1836.4141,1836.1323,1835.8768,1835.6132,1838.1859,1837.3308,1837.4165,1839.2178,1839.0352,1838.453,1859.1952,nan,nan,nan,nan,nan,nan,2955.6465,2955.6804,2955.4941,2955.702,2955.6775,2955.5938,2955.471,2956.7065,2956.6675,2956.459,2958.4983,2959.4412,2958.7786,2962.2876,2962.3994,2962.3162,2962.6423,2965.1733,2964.8103,2964.6104,2967.0557,2966.1804,2965.7876,2968.46,2972.6067,3057.6973,3147.009,3298.241,3295.07,3290.1128,3295.6343,3301.085,3303.3577,3302.5996,3304.8262,3304.4512,3303.21,3303.5388,3303.171,3303.336,3327.9658,3323.121,3325.3052,3382.1243,3378.4873,3376.4543,3359.0125,3402.7139,3406.613,3432.687,3576.7134,3615.096,3627.3228,3575.4167,3588.1206,3586.7969,3599.9253,3590.4126,3585.693,3582.2534,3555.0117,3565.3137,3581.5083,3610.4219,3605.003,3576.372,3541.11,3512.6333,nan,nan,2851.0403,2851.12,2851.0842,2855.0935,2855.1113,2854.6016
3247.4724,3248.5886,3254.1567,3253.73,3251.1724,3250.0293,3253.089,3247.2048,3236.8137,3231.9443,3218.4836,3218.8557,3221.2212,3236.8745,3239.1963,3244.2236,3251.633,3276.796,3282.9028,3287.5942,3295.361,3296.0469,3296.7268,3288.4148,3289.3325,3288.5845,3289.8438,3271.8267,3271.201,3271.4817,3253.1238,3253.5022,3254.3945,3201.6965,3197.8381,3239.5554,3239.3306,3059.529,3024.431,3027.678,3013.1296,3013.5735,3014.163,3014.9424,3012.5393,3012.1099,3013.33,3011.2554,3005.4058,3014.6682,3023.0686,3023.8357,3029.3452,nan,nan,nan,nan,nan,nan,nan,nan,nan,nan,nan,nan,1836.6648,1836.6647,1832.3365,1832.671,1833.88,1830.0052,1830.2917,1830.3,1827.7666,1828.1871,1828.5969,1828.8075,1826.5702,1826.5647,1826.1019,1827.4489,1827.5554,1827.6764,1828.4734,1828.2478,1828.2959,1829.7716,1833.6658,1833.5592,1833.4092,1835.2733,1834.8885,1834.7032,1836.684,1836.46,1836.0323,1835.5913,1838.0948,1837.274,1837.3223,1840.1661,1839.3523,1838.3517,1859.1953,nan,nan,1859.1952,nan,nan,nan,2955.6506,2955.6763,2955.4717,2955.68,2955.6826,2955.6038,2955.4868,2956.6973,2956.6396,2956.3594,2958.601,2959.5688,2958.6577,2962.2861,2962.454,2962.471,2962.9062,2965.1912,2964.8025,2964.623,2967.0232,2966.2207,2965.7615,2968.709,2972.2578,3073.8088,3126.7588,3298.9937,3300.2488,3295.8296,3293.6216,3291.7556,3291.2534,3296.1135,3297.5774,3303.5146,3304.3752,3304.5894,3298.8335,3301.3137,3334.4321,3334.4834,3335.2915,3377.4163,3378.0928,3373.6494,3353.0854,3434.4888,3386.188,3455.266,3524.5767,3575.8804,3615.799,3605.7056,3613.5784,3587.9695,3595.8154,3581.4756,3586.4612,3586.3555,3577.3315,3565.6912,3558.5947,3557.4565,3550.2937,3523.0972,3522.761,3516.8457,nan,nan,2851.034,2851.0977,2851.096,2855.09,2855.118,2854.5989
3246.5325,3249.906,3249.7627,3279.7095,3287.3906,3292.3706,3293.696,3285.957,3293.3477,3293.0525,3283.134,3284.371,3285.071,3290.8699,3291.4792,3291.6907,3291.0688,3296.7424,3297.8489,3298.2373,3299.9287,3300.7346,3300.6335,3291.2192,3291.4197,3291.7668,3291.3647,3271.478,3271.5818,3273.3496,3252.799,3254.8555,3255.5378,3210.23,3207.8557,3240.991,3239.5159,3059.5293,3023.783,3027.5083,3013.2122,3012.6523,3013.9648,3015.1448,3012.5686,3011.8857,3013.3696,3011.7275,3005.953,3010.9778,3023.9353,3022.184,3029.3474,nan,nan,nan,nan,nan,nan,nan,nan,nan,nan,nan,nan,1836.6647,1836.6647,1831.2167,1832.2839,1833.7046,1829.5062,1829.5126,1829.7423,1828.0044,1828.331,1828.4916,1828.6005,1826.2732,1826.2657,1826.1818,1827.2639,1827.4188,1827.456,1828.4392,1827.9731,1827.2611,1827.8953,1832.6444,1833.0912,1833.4419,1835.6008,1834.7659,1834.384,1836.5917,1836.4225,1836.1678,1835.6279,1838.0681,1837.173,1837.2632,1840.8516,1839.7384,nan,nan,nan,nan,nan,nan,nan,nan,2955.639,2955.6694,2955.4558,2955.6716,2955.663,2955.6064,2955.502,2956.734,2956.6355,2956.252,2957.81,2959.6094,2958.6074,2962.3374,2962.379,2962.4492,2962.7515,2965.2227,2964.883,2964.6294,2966.9775,2966.2527,2965.7625,2968.8828,2971.868,3078.9363,3172.8938,3302.043,3303.3066,3297.6475,3293.6694,3295.0056,3294.1914,3294.5425,3294.5508,3303.623,3303.1646,3305.6638,3294.633,3301.3887,3352.6235,3350.2473,3353.8723,3384.693,3387.2366,3389.4631,3387.1929,3448.1223,3464.1316,3454.3232,3564.6511,3604.1648,3590.1409,3622.4927,3600.8145,3577.8274,3572.8772,3556.0151,3559.7378,3568.0503,3549.3022,3535.7659,3532.192,3541.7341,3546.4917,3547.4663,3553.1196,3519.388,nan,nan,2850.9487,2851.1262,2851.0764,2855.0862,2855.1199,2854.599
3245.709,3249.15,3249.4055,3285.472,3289.308,3291.178,3292.5264,3284.4854,3290.837,3291.2227,3283.6292,3284.66,3284.2476,3289.542,3290.192,3289.704,3288.8523,3295.4775,3295.287,3294.9958,3298.4114,3298.3833,3298.8298,3290.277,3290.613,3290.572,3291.1443,3272.3467,3272.4895,3273.6763,3253.914,3255.3574,3256.574,3213.774,3208.7432,3241.4229,3238.9944,3059.5295,3024.123,3027.4631,3012.7925,3012.641,3013.7915,3015.4448,3012.6062,3012.0652,3013.4883,3011.9722,3005.903,3007.4624,3024.3472,3025.2234,3027.3865,nan,nan,nan,nan,nan,nan,nan,nan,nan,nan,nan,nan,nan,1836.6647,1831.3958,1832.587,1833.651,1829.0767,1828.9727,1830.4487,1828.8075,1828.3359,1828.5332,1828.8195,1827.2828,1826.6439,1826.0471,1827.0737,1826.9216,1826.8983,1829.242,1828.0533,1827.2635,1827.4258,1832.382,1832.4225,1832.6897,1835.0638,1834.5292,1834.1649,1836.4657,1836.3494,1836.1827,1835.5787,1837.9094,1837.0098,1837.1582,1840.6854,1838.9642,nan,nan,nan,nan,nan,nan,nan,nan,2955.651,2955.6768,2955.4663,2955.6714,2955.6672,2955.627,2955.5027,2956.7476,2956.6365,2956.3394,2958.568,2959.6953,2958.523,2962.3,2962.4285,2962.492,2962.9446,2965.24,2964.821,2964.6594,2967.0066,2966.264,2965.7888,2968.9905,2970.5747,3051.1572,3170.5564,3301.192,3303.778,3298.6538,3292.6895,3292.6248,3294.8145,3292.9075,3293.3345,3300.751,3299.2913,3307.9468,3296.9646,3295.113,3330.8218,3342.4922,3359.3013,3386.7517,3389.4023,3388.0845,3387.1333,3450.11,3456.3618,3499.725,3590.4504,3608.3416,3602.2964,3583.2231,3580.262,3570.351,3570.0256,3548.7766,3553.734,3555.016,3531.2012,3525.926,3529.0576,3549.7869,3532.84,3535.3625,3524.5452,3500.3457,3536.7888,nan,2850.9402,2851.1262,2851.0784,2855.097,2855.1165,2854.6064
3246.4553,3242.1904,3243.4585,3321.1245,3320.3022,3320.3464,3320.6848,3310.6814,3316.3848,3316.7393,3307.2441,3307.242,3307.3096,3304.6184,3304.452,3304.7131,3305.1477,3300.8306,3301.03,3301.0742,3295.011,3295.481,3295.4133,3286.3247,3286.727,3286.4863,3286.5933,3268.916,3269.3923,3270.5828,3252.5137,3254.4412,3255.9495,3216.917,3219.5847,3236.6199,3233.7795,3063.0505,3038.6353,3046.192,3010.7434,3009.9106,3012.2817,3009.0647,3007.6365,3007.6528,3009.399,3004.4165,2999.1228,2998.4875,3014.5164,3014.4827,3014.8984,nan,nan,nan,nan,nan,nan,nan,nan,nan,nan,nan,nan,nan,nan,1833.9434,1834.8389,1835.008,1833.0863,1833.1208,1833.6752,1833.3052,1832.1313,1831.832,1832.0072,1831.3702,1831.0828,1829.3345,1829.2705,1829.2982,1830.3093,1832.8441,1831.1338,1830.4604,1830.9043,1834.714,1834.4006,1834.0892,1836.0043,1836.0181,1835.8136,1837.5535,1837.8461,1837.9794,1837.6647,1838.5322,1838.446,1838.802,1838.4979,1838.498,nan,nan,nan,nan,nan,nan,nan,nan,2955.1377,2955.216,2954.4917,2954.646,2954.754,2954.6023,2954.2102,2955.8015,2955.6985,2955.4648,2957.448,2958.7053,2957.4011,2961.255,2961.5994,2961.656,2961.8896,2964.2046,2963.8079,2963.6057,2965.8967,2965.01,2964.496,2968.495,2968.7178,3014.4229,3168.0093,3303.002,3312.8916,3307.217,3326.5452,3319.318,3308.3452,3320.6626,3306.7495,3304.4482,3310.0889,3309.5437,3314.7688,3311.7153,3324.3271,3323.7305,3383.8354,3469.8362,3489.1345,3490.7422,3486.6636,3511.4153,3510.782,3517.6614,3556.1445,3558.681,3558.2048,3521.1409,3519.6733,3519.633,3517.2705,3490.8872,3487.25,3492.0667,3477.7273,3473.8596,3474.8418,3475.7769,3472.1494,3470.8757,3479.5393,3505.8467,3472.6555,nan,2850.7266,2850.5938,2850.6135,2855.4238,2855.4426,2854.8196
3247.1162,3242.4807,3242.9563,3320.2935,3320.0188,3320.064,3320.4658,3310.7166,3316.2334,3316.4968,3307.3284,3307.3752,3307.5103,3304.7007,3304.7678,3304.8767,3305.1272,3301.1953,3301.7466,3302.0254,3295.8716,3296.4094,3296.658,3286.6553,3287.851,3287.6328,3288.4763,3268.862,3269.3438,3271.255,3252.192,3251.607,3254.4998,3218.72,3218.5789,3236.1123,3235.8674,3110.0012,3026.0435,3032.2454,3006.493,3006.5647,3008.0798,3008.801,3007.24,3007.3167,3009.3335,3004.5242,2999.29,2998.4763,3014.8047,3014.6719,3014.842,nan,nan,nan,nan,nan,nan,nan,nan,nan,nan,nan,nan,nan,nan,1834.293,1834.8511,1834.7134,1833.0789,1833.8761,1833.7993,1833.5461,1832.8251,1832.1367,1832.3945,1831.845,1832.5958,1832.3674,1830.3228,1829.9087,1829.5812,1830.9421,1830.8523,1831.2264,1832.1008,1834.5403,1834.4576,1834.1869,1835.918,1835.8195,1835.5345,1837.228,1837.736,1838.1604,1837.2151,1838.032,1837.7057,1838.057,1838.4982,nan,nan,nan,nan,nan,nan,nan,nan,nan,2955.1357,2955.1682,2954.4485,2954.6008,2954.7554,2954.6636,2954.2073,2955.828,2955.7466,2955.5483,2957.2515,2958.6404,2957.4243,2961.2874,2961.6755,2961.6501,2961.98,2964.3516,2963.914,2963.6738,2965.9202,2965.0513,2964.5823,2968.5784,2967.8184,2975.7944,3147.1506,3300.4182,3313.06,3308.3474,3326.308,3320.6182,3307.3923,3314.862,3302.8376,3305.785,3307.0552,3303.2524,3305.7876,3334.1042,3420.3691,3397.2324,3363.8572,3413.8652,3466.31,3492.4465,3477.996,3528.6494,3529.078,3522.077,3556.6343,3556.9429,3550.8992,3525.5112,3526.3923,3531.0828,3536.5393,3517.1528,3515.8452,3522.2085,3493.9873,3480.5217,3476.394,3481.6582,3473.5007,3471.762,3473.167,3497.0032,3478.2559,nan,2850.741,2850.5833,2850.6262,2855.4268,2855.4436,2854.8262
3246.6306,3241.967,3242.9685,3319.9487,3319.7488,3319.7517,3320.347,3311.1199,3316.3555,3316.694,3307.806,3307.998,3308.1355,3305.44,3305.4805,3305.7754,3305.9092,3301.6208,3302.1685,3302.2163,3296.1753,3296.53,3296.907,3288.3315,3289.2454,3291.1106,3290.4194,3268.3584,3268.9382,3270.8865,3248.3516,3248.8914,3250.3271,3209.2856,3212.0156,3239.323,3238.5017,3062.0356,3025.55,3032.0237,3006.3533,3005.9058,3007.8237,3008.5957,3007.1504,3007.2175,3009.3005,3004.5188,3000.097,2998.408,3015.0857,3014.7898,3014.7495,nan,nan,nan,nan,nan,nan,nan,nan,nan,nan,nan,nan,nan,nan,1834.8412,1834.8672,1834.8947,1833.6251,1834.1199,1834.2107,1833.8313,1833.7017,1833.5753,1833.4016,1832.2906,1832.8231,1832.7157,1833.124,1832.7086,1831.7734,1832.3915,1832.429,1832.7905,1832.9342,1834.7352,1834.4131,1834.0479,1835.7802,1835.8402,1835.6641,1837.5785,1837.7819,1837.8551,1837.4166,1838.2064,1837.7737,1837.5614,1838.4979,nan,nan,nan,nan,nan,nan,nan,nan,nan,2955.1123,2955.1858,2954.4563,2954.5933,2954.7097,2954.669,2954.209,2955.7864,2955.7654,2955.5244,2957.0842,2958.706,2957.5479,2961.2297,2961.6218,2961.5886,2962.1306,2964.3691,2963.9297,2963.6865,2965.9915,2965.0198,2964.6035,2968.4692,2967.3018,2973.8887,3141.045,3282.1313,3295.6406,3297.4392,3317.9512,3311.9119,3293.371,3296.6228,3297.4426,3301.9185,3299.7546,3302.6804,3306.5286,3353.0088,3464.189,3435.1995,3364.914,3445.7195,3435.4045,3453.4958,3470.328,3500.4773,3488.573,3504.4094,3530.8489,3531.0076,3548.834,3529.5476,3524.0203,3536.1758,3540.0654,3524.6287,3520.5457,3525.9043,3509.4417,3502.139,3489.176,3494.8767,3483.3408,3476.8074,3475.788,3498.1306,nan,nan,2850.7683,2850.6094,2850.612,2855.423,2855.442,2854.8176
3238.1594,3239.4072,3244.3228,3313.9524,3313.8386,3313.6987,3313.6887,3306.7239,3309.5842,3309.6917,3302.3015,3302.6223,3302.6785,3297.4724,3297.5244,3297.6858,3297.9734,3290.856,3291.121,3291.0398,3283.6455,3284.2317,3286.9373,3277.6917,3279.8176,3280.494,3280.268,3266.0146,3264.659,3265.681,3247.0652,3248.9382,3250.236,3204.004,3206.4521,3237.0776,3235.9114,3064.7341,3023.1418,3029.4458,2995.0742,2993.9834,2997.1716,2996.8936,2994.3464,2995.9402,2999.5098,2989.0493,2982.7065,2978.638,3004.1328,3002.8662,3004.6216,nan,nan,nan,nan,nan,nan,nan,nan,nan,nan,nan,nan,nan,nan,1836.2844,1836.618,1837.2885,1838.539,1838.9965,1838.2664,1838.9225,1838.7032,1838.4637,1838.0459,1839.208,1838.9231,1838.6428,1840.4843,1839.9047,1838.2917,1840.3495,1839.9011,1839.5436,1839.053,1840.2302,1840.0502,1839.9747,1840.5011,1840.2305,1839.9799,1840.4719,1840.4994,1840.7148,1840.7195,1841.0848,1840.5741,1839.591,nan,nan,nan,nan,nan,nan,nan,nan,nan,nan,2953.4216,2953.801,2952.536,2953.0498,2953.0251,2952.9375,2952.2795,2954.2505,2954.2095,2953.8528,2955.9448,2957.2104,2955.9065,2960.0205,2960.5833,2960.7043,2961.267,2963.406,2962.8467,2962.5837,2965.0815,2964.0798,2963.6343,2967.453,2966.214,2973.0034,3125.917,3229.8127,3211.7373,3204.8984,3259.013,3269.1555,3247.867,3284.2607,3263.568,3280.4202,3284.9382,3308.843,3279.9614,3249.5896,3315.2832,3344.351,3285.9124,3372.0972,3423.871,3483.3381,3497.8364,3394.4128,3431.1072,3428.2283,3488.2915,3477.8352,3468.1794,3463.4556,3469.021,3476.469,3482.354,3466.262,3458.0957,3461.0227,3465.472,3459.2485,3455.5422,3462.3608,3457.9207,3451.9604,3455.3027,3457.943,3452.3604,nan,nan,2850.587,2850.5708,2853.875,2853.8374,2853.3464
3238.1133,3237.1685,3244.2646,3314.9946,3315.341,3315.485,3315.469,3308.9023,3311.666,3312.1816,3305.0217,3305.2898,3305.4827,3301.6064,3301.4292,3301.6155,3301.7554,3295.3076,3295.9436,3296.2996,3289.2266,3290.084,3291.7314,3281.3965,3283.439,3283.553,3283.9219,3268.4783,3267.8835,3269.5342,3250.597,3251.792,3253.2693,3210.727,3210.7021,3237.1206,3236.498,3063.8647,3024.569,3029.0237,2995.3179,2993.8357,2996.56,2996.8042,2994.005,2995.2988,2999.5605,2989.045,2982.5762,2979.574,3003.6846,3003.6787,3004.9272,nan,nan,nan,nan,nan,nan,nan,nan,nan,nan,nan,nan,nan,nan,1836.1594,1836.399,1837.2292,1838.8226,1838.9332,1838.544,1838.8463,1838.8594,1838.7574,1838.6827,1840.1431,1839.7253,1839.685,1841.6444,1841.1505,1840.5756,1841.7279,1841.0553,1840.7704,1841.2625,1841.9896,1842.5771,1842.2484,1841.7535,1842.152,1841.3988,1840.9468,1840.6147,1840.3203,1840.1233,1840.7651,1839.7142,nan,nan,nan,nan,nan,nan,nan,nan,nan,nan,nan,2953.2612,2953.9045,2952.562,2952.9988,2953.0745,2953.0627,2952.3738,2954.2566,2954.164,2953.918,2955.6902,2957.2908,2955.9048,2960.0579,2960.4805,2960.6353,2961.2004,2963.4216,2962.8882,2962.608,2965.0737,2964.1335,2963.7195,2967.426,2965.9858,2972.4695,3125.7668,3186.5574,3146.428,3183.0027,3237.6687,3257.1636,3229.7417,3286.6523,3278.6035,3277.6292,3281.8196,3302.4243,3258.8623,3228.551,3258.8118,3346.2017,3260.4004,3341.2454,3434.6936,3471.223,3426.4636,3426.1643,3435.1765,3416.2202,3483.9739,3494.769,3484.1555,3471.6497,3465.9106,3469.543,3473.6643,3461.5054,3456.6797,3457.0073,3462.816,3459.5295,3457.0024,3466.197,3462.9763,3458.57,3459.6077,3465.775,3461.3008,nan,nan,2850.5654,2850.5537,2853.8398,2853.7598,2853.3315
3238.2468,3237.1426,3243.7866,3315.6345,3315.6519,3315.4675,3315.504,3309.1436,3312.3987,3312.6504,3305.3093,3305.5576,3305.7559,3301.9697,3302.0896,3302.055,3302.4207,3296.2942,3296.6191,3297.046,3289.8364,3292.4841,3293.1953,3283.458,3284.485,3284.7634,3284.6475,3269.0576,3269.0813,3270.435,3251.7197,3254.1838,3255.5156,3211.7075,3211.2332,3236.8948,3235.606,3077.1758,3024.8896,3028.8943,2994.8953,2993.3132,2996.4338,2996.178,2992.812,2995.072,2999.2073,2989.4927,2982.5283,2981.1833,3002.382,3001.0198,3004.5356,nan,nan,nan,nan,nan,nan,nan,nan,nan,nan,nan,nan,nan,nan,1837.9601,1836.1487,1836.4,1837.4141,1838.475,1838.5234,1838.9705,1839.0785,1838.8175,1838.7434,1839.8619,1839.839,1840.2562,1842.4375,1842.4589,1842.0162,1843.7092,1843.8358,1843.1422,1843.5906,1843.7072,1843.73,1844.2571,1842.813,1842.4731,1842.0675,1841.2943,1840.7021,1839.8472,1839.4447,1839.6732,1839.3953,nan,nan,nan,nan,nan,nan,nan,nan,nan,nan,nan,2953.095,2953.8232,2952.5312,2952.9487,2953.052,2952.8643,2952.2761,2954.1592,2954.1306,2953.8315,2955.806,2957.1738,2955.941,2959.9878,2960.4607,2960.562,2961.129,2963.3728,2962.9272,2962.6436,2965.0876,2964.161,2963.7202,2967.1626,2966.3674,2972.6975,3096.416,3203.6167,3131.7874,3160.0696,3219.1929,3252.977,3229.5762,3262.039,3182.6086,3290.028,3307.7703,3322.7273,3226.2341,3224.8237,3292.9019,3260.36,3261.6865,3343.5042,3481.845,3484.8298,3408.8887,3417.241,3409.583,3391.4033,3490.1824,3487.59,3487.038,3475.221,3472.8413,3474.008,3474.6138,3463.9624,3461.6118,3466.9976,3462.1423,3460.37,3458.4343,3469.3293,3466.3582,3465.1418,3465.0564,3480.922,3467.9255,nan,nan,2850.5544,2850.5344,2853.7397,2853.717,2853.2922
3238.2617,3237.0574,3243.7388,3315.7786,3315.6445,3315.674,3315.8604,3309.58,3312.752,3313.0005,3305.8127,3305.9968,3306.1775,3302.5415,3302.5356,3302.6907,3303.0256,3296.747,3297.1958,3297.4165,3291.317,3293.6912,3294.342,3283.5989,3284.0205,3284.7183,3285.5344,3269.3975,3269.7136,3271.0913,3252.6025,3254.5586,3255.0571,3212.1233,3211.2095,3236.371,3235.4285,3134.869,3024.4014,3030.9263,2992.746,2992.5164,2995.8345,2995.3452,2992.1003,2994.4883,2999.0415,2988.1768,2982.5942,2980.1,3002.8958,3001.3108,3003.253,nan,nan,nan,nan,nan,nan,nan,nan,nan,nan,nan,nan,nan,nan,1838.5552,1837.6385,1836.0094,1836.4316,1837.2941,1838.1667,1838.3871,1838.5988,1838.589,1838.6506,1839.91,1839.6929,1840.3378,1842.8505,1842.8911,1842.9519,1844.7092,1844.9891,1844.8308,1844.3661,1844.7006,1844.9042,1845.0917,1843.5695,1843.3036,1842.8815,1841.642,1841.03,1840.1531,1839.0662,1839.378,nan,nan,nan,nan,nan,nan,nan,nan,nan,nan,nan,nan,2953.1003,2953.7441,2952.4338,2952.8645,2952.9001,2952.8452,2952.1628,2954.09,2954.1045,2953.8547,2955.772,2957.2195,2955.9072,2959.8757,2960.4236,2960.4736,2961.0828,2963.386,2962.8545,2962.6707,2965.1436,2964.2432,2963.8105,2967.144,2966.3987,2972.6072,3061.0015,3185.9653,3141.4072,3139.3818,3174.2322,3176.7432,3167.4534,3217.7656,3250.2598,3298.7222,3309.6628,3317.4702,3259.6025,3234.2178,3267.8271,3257.2424,3257.088,3380.4065,3406.1282,3427.768,3440.6182,3407.5269,3404.9016,3414.1328,3460.4216,3462.918,3483.317,3470.1128,3473.783,3475.6648,3473.7017,3463.7651,3464.0095,3473.9612,3467.998,3466.424,3461.6582,3469.262,3463.5642,3462.942,3464.1694,3483.1477,3471.1245,nan,nan,2850.5347,2850.5303,2853.7493,2853.7366,2853.2915
3235.6309,3234.6257,3243.8215,3310.2527,3311.2314,3311.254,3310.0527,3308.771,3308.2188,3307.652,3303.6143,3304.1287,3304.1572,3297.4302,3297.4001,3297.4275,3297.5364,3287.7961,3288.6448,3288.276,3281.1384,3281.9482,3284.2766,3271.151,3271.0938,3270.5496,3267.6584,3262.0457,3263.6956,3265.1777,3250.8145,3251.7676,3253.2107,3213.1526,3209.3276,3235.4587,3235.773,3109.3928,3013.3071,3024.7192,2979.3513,2979.059,2982.3948,2983.9812,2978.116,2981.8225,2985.806,2977.3804,2970.0012,2967.7637,2998.3518,2997.965,2997.8257,nan,nan,nan,nan,nan,nan,nan,nan,nan,nan,nan,nan,nan,1849.216,1850.7681,1847.9584,1839.4072,1839.8989,1840.3285,1840.7695,1841.2659,1841.7428,1842.0172,1841.9988,1843.6024,1843.5568,1843.9484,1847.0286,1846.8895,1846.8209,1848.229,1848.4037,1848.6085,1848.7084,1847.9696,1848.3441,1848.7334,1846.237,1846.3975,1846.24,1844.3636,1843.8241,1843.0201,1841.2893,1978.5969,nan,nan,nan,nan,nan,1978.7399,nan,nan,nan,nan,nan,nan,2950.109,2951.0881,2949.463,2950.2104,2950.223,2949.953,2949.178,2951.4424,2951.4207,2951.364,2953.2415,2954.2227,2953.198,2956.5615,2957.1794,2957.2974,2957.655,2959.7285,2959.0908,2958.911,2960.963,2960.168,2959.9094,2962.341,2962.0784,2966.7202,3020.9802,3120.1208,3133.072,3128.0696,3136.9602,3120.2375,3122.8335,3137.118,3197.5361,3245.142,3232.921,3214.297,3205.6785,3185.4739,3201.2146,3194.6738,3185.8188,3310.4414,3348.312,3336.9685,3326.0737,3392.556,3383.7915,3360.589,3383.5476,3389.875,3394.1604,3412.1792,3411.4436,3403.8862,3405.1624,3410.8132,3416.496,3416.215,3432.1526,3425.2312,3418.6472,3433.8347,3426.2153,3427.2744,3430.4607,3455.0254,3479.065,nan,nan,2848.0242,2848.0122,2849.056,2849.214,2848.9778
3236.2625,3234.9246,3243.6963,3310.1165,3311.0789,3311.219,3310.2664,3308.6633,3308.2637,3307.6777,3303.5474,3303.9648,3304.048,3297.4424,3297.4307,3297.4873,3297.6074,3288.4275,3288.7976,3290.122,3281.5706,3283.3125,3284.5422,3272.014,3271.8533,3267.4062,3257.4006,3232.5999,3261.5935,3265.0376,3249.01,3249.2883,3250.2476,3207.119,3208.6348,3235.688,3235.6196,3109.7937,3011.012,3019.2288,2979.7983,2979.316,2981.9434,2984.118,2977.9355,2981.5476,2984.9795,2977.7512,2970.301,2967.8953,2998.8945,2998.8696,2998.7131,nan,nan,nan,nan,nan,nan,nan,nan,nan,nan,nan,nan,nan,1849.216,1851.1056,1848.1699,1839.3074,1839.3628,1839.6082,1839.3917,1840.0864,1840.5076,1840.77,1840.9878,1843.1936,1843.1205,1843.3582,1846.4043,1846.5696,1846.7832,1848.1267,1848.224,1848.337,1848.2708,1848.103,1848.602,1848.8981,1846.367,1846.4348,1846.2179,1844.0432,1842.989,1841.2378,1840.8829,nan,nan,nan,nan,nan,nan,nan,1978.7397,nan,1978.7396,nan,nan,nan,2949.825,2951.0178,2949.5283,2950.1792,2950.3032,2950.184,2949.2603,2951.506,2951.3513,2951.4246,2953.0989,2954.3772,2953.1875,2956.594,2957.1772,2957.2043,2957.5488,2959.7192,2959.09,2959.0188,2961.0754,2960.2563,2960.0146,2962.266,2962.2017,2965.3794,3035.0015,3125.9788,3136.5247,3135.122,3173.0176,3184.1443,3168.9717,3210.215,3213.8784,3213.1665,3196.4214,3204.3833,3200.2212,3188.679,3198.1423,3194.7795,3181.6284,3331.9104,3392.8015,3400.4026,3393.1536,3395.601,3393.561,3402.4812,3409.766,3413.0837,3400.4565,3404.7583,3405.245,3401.8816,3408.5046,3409.525,3406.8145,3397.2598,3410.7422,3406.4583,3409.9302,3431.6653,3434.5005,3424.4263,3418.9192,3440.745,3429.395,nan,nan,2848.1177,2848.1482,2849.2654,2849.17,2848.9785
3236.142,3234.818,3243.3315,3309.904,3310.7783,3310.96,3310.427,3308.3813,3308.0764,3307.715,3303.4624,3303.8284,3303.991,3297.4658,3297.512,3297.6292,3297.957,3288.806,3288.6594,3290.917,3282.1118,3283.749,3285.9856,3273.6445,3266.158,3253.0508,3242.51,3218.8252,3231.9539,3263.363,3247.1218,3248.7292,3250.3474,3201.9639,3199.6177,3235.7473,3234.0574,3106.267,3011.1558,3018.0242,2979.342,2979.1506,2981.7698,2983.3677,2977.8882,2981.5332,2985.0374,2977.2307,2970.6072,2967.9016,2998.7056,2997.8818,3000.117,nan,nan,nan,nan,nan,nan,nan,nan,nan,nan,nan,nan,nan,1849.216,1848.5428,1847.9078,1842.0284,1839.3485,1839.2318,1839.094,1839.662,1839.8326,1839.8779,1839.8601,1842.597,1842.6058,1842.9258,1845.9705,1846.3024,1846.671,1848.0479,1848.1017,1847.9629,1847.9637,1847.8738,1848.2042,1848.6847,1846.0321,1846.2382,1845.8672,1843.6814,1842.0555,1841.0731,nan,nan,nan,nan,nan,nan,nan,1978.7397,1978.7397,1978.7397,1978.7397,nan,nan,nan,2949.3682,2950.9146,2949.4941,2950.107,2950.189,2950.091,2949.1948,2951.422,2951.2625,2951.252,2953.8154,2954.3562,2953.0122,2956.6038,2957.2036,2957.4106,2957.8245,2959.7434,2959.1162,2958.9697,2961.1396,2960.3413,2960.0625,2962.4739,2962.3328,2965.7874,3047.7874,3107.9824,3128.7224,3128.0332,3131.2822,3133.1155,3115.0317,3173.1619,3175.2004,3173.1748,3176.5042,3228.386,3191.7834,3192.821,3256.012,3268.5186,3240.0652,3304.6677,3335.281,3339.1667,3336.0815,3403.1064,3367.4434,3375.3806,3397.235,3395.9688,3386.1504,3393.2546,3391.7065,3401.196,3410.6565,3412.2488,3411.792,3404.0303,3410.7676,3410.073,3416.0996,3438.9277,3433.9326,3426.1682,3431.023,3453.2795,3430.2798,nan,nan,2848.0198,2848.1672,2849.3098,2849.2534,2849.1045
3235.8594,3234.618,3243.3472,3309.3398,3309.4902,3310.2468,3311.3765,3307.843,3307.4758,3307.6091,3303.3687,3303.5117,3304.1729,3297.6724,3297.7043,3297.9648,3298.197,3289.7532,3289.1558,3290.4817,3280.839,3283.166,3286.1182,3272.623,3256.1897,3245.4126,3254.687,3219.3838,3217.0674,3251.334,3242.417,3244.764,3247.2676,3193.2908,3193.4697,3233.8857,3227.8203,3104.7292,3012.1472,3017.2905,2979.8103,2980.3652,2983.687,2983.3162,2979.3298,2982.206,2986.536,2978.0312,2971.2102,2970.267,2998.8052,2998.3577,2999.849,nan,nan,nan,nan,nan,nan,nan,nan,nan,nan,nan,nan,nan,1849.216,1845.9562,1841.5767,1842.843,1840.0444,1839.0818,1838.8726,1839.5308,1839.4752,1839.4441,1839.3588,1841.4755,1841.7273,1842.1431,1845.1014,1845.6018,1845.8628,1847.4445,1847.3947,1847.3077,1847.229,1847.0393,1847.417,1847.8064,1845.3668,1845.3135,1845.1738,1843.1307,1842.678,1843.3599,nan,nan,nan,nan,nan,nan,nan,1978.7397,1978.7397,1978.7397,1978.7397,nan,nan,nan,2949.2317,2951.0356,2949.5928,2950.1423,2950.2786,2950.0833,2949.1516,2951.353,2951.273,2951.246,2953.926,2954.3057,2953.0603,2956.6057,2957.2444,2957.5076,2957.8665,2959.82,2959.1633,2959.0298,2961.302,2960.5183,2960.2598,2962.4395,2962.581,2965.8796,3028.8174,3111.0664,3112.9429,3129.1973,3131.078,3133.3394,3113.274,3159.98,3164.918,3171.5227,3179.1501,3201.2175,3210.4114,3197.1738,3257.0454,3289.5825,3224.3838,3312.2742,3334.377,3337.3916,3337.3904,3399.371,3379.5332,3360.76,3392.44,3389.303,3385.0964,3392.0325,3396.137,3409.2886,3412.3835,3413.4373,3414.6064,3413.1348,3419.9614,3419.3682,3419.1826,3441.2578,3443.1804,3432.3577,3424.807,3464.2732,3442.079,3416.6406,nan,2848.051,2848.1265,2849.3882,2849.4229,2849.1975
3234.6755,3234.3296,3246.768,3299.9226,3301.65,3301.6506,3301.7583,3308.2595,3302.8672,3302.3213,3302.9792,3303.478,3304.08,3297.0808,3297.1775,3297.3296,3297.3984,3284.772,3284.906,3284.212,3269.627,3273.0046,3274.5066,3241.998,3221.1584,3213.2603,3210.6777,3172.0437,3174.4402,3203.2756,3169.997,3166.5166,3166.66,3137.405,3139.132,3135.0374,3152.069,3039.3464,3002.4158,3008.0015,2967.6863,2968.189,2971.925,2972.6323,2968.7478,2970.0718,2974.3303,2966.403,2960.3083,2961.3003,2992.7046,2993.3564,2991.8865,nan,nan,nan,nan,nan,nan,nan,nan,nan,nan,nan,nan,1851.1042,1850.438,1852.358,1852.672,1852.1342,1851.7526,1848.8839,1846.8032,1843.6715,1843.5415,1843.3827,1843.3258,1844.8639,1844.9838,1845.4019,1847.2208,1847.4521,1847.5082,1848.5175,1848.4801,1848.6204,1848.9816,1847.9912,1848.3549,1848.7308,1845.394,1845.7722,1845.9673,1842.2264,1840.1815,1840.3806,nan,1978.7397,nan,nan,1978.7397,1978.739,1941.7936,nan,nan,nan,nan,nan,nan,nan,2946.563,2947.8801,2946.4893,2947.8093,2947.8342,2947.6917,2946.5579,2949.0664,2948.9116,2948.844,2951.036,2951.4841,2950.7446,2953.6172,2954.4426,2954.607,2954.9,2956.905,2956.26,2955.8865,2957.788,2957.2678,2957.1646,2958.7957,2958.5674,2958.7021,3023.2961,3081.0823,3069.879,3070.8699,3099.7375,3087.3337,3094.8499,3109.5432,3118.6008,3139.8853,3114.9126,3128.4617,3169.5105,3178.1765,3213.3062,3216.619,3227.947,3303.0571,3320.9631,3318.187,3327.375,3362.0012,3346.9353,3338.2495,3360.8696,3354.8867,3351.4854,3333.1643,3337.0166,3351.3577,3351.2227,3348.0444,3355.2554,3355.737,3371.721,3367.9573,3366.8096,3387.554,3387.5247,3401.034,3386.269,3398.025,3384.5637,3361.6409,nan,2842.3945,2843.34,2841.9504,2841.7432,2841.744
3233.97,3234.8035,3248.4329,3300.7456,3303.5352,3302.201,3302.9927,3308.7769,3303.5122,3303.226,3303.499,3304.2183,3304.4836,3297.4526,3297.4558,3297.527,3297.722,3285.541,3285.7644,3285.772,3269.2517,3270.0059,3265.6938,3236.49,3218.0757,3210.2632,3208.02,3172.279,3172.7183,3191.4797,3160.9958,3170.1174,3170.6355,3130.6843,3121.6814,3131.069,3151.059,3042.0579,3001.148,3005.9778,2968.2852,2968.7307,2972.9802,2973.5686,2968.9573,2970.5386,2974.6367,2967.4077,2960.7065,2961.753,2992.4727,2993.2192,2992.2192,nan,nan,nan,nan,nan,nan,nan,nan,nan,nan,nan,nan,1851.0664,1849.9697,1852.6241,1852.3815,1852.3118,1850.9662,1850.3848,1848.8116,1844.7385,1843.7369,1843.3417,1843.1412,1844.7031,1844.756,1845.0216,1847.316,1847.3866,1847.4888,1848.6094,1848.6926,1848.7334,1848.8909,1848.2882,1848.7671,1849.0338,1845.7128,1846.0721,1845.9636,1841.3129,1838.9268,1839.427,1853.4323,1978.5566,1978.7235,nan,1978.7378,1975.2288,1935.645,nan,nan,nan,1978.7397,nan,nan,nan,2946.3904,2947.8591,2946.4922,2947.8613,2947.8467,2947.7266,2946.631,2949.1511,2948.9712,2948.8008,2950.7322,2951.5623,2950.7776,2953.7397,2954.5107,2954.608,2954.952,2956.9646,2956.3823,2955.9048,2957.8904,2957.2666,2957.243,2958.88,2958.4587,2958.6194,3024.1733,3083.7263,3092.9978,3077.2153,3086.7827,3089.5867,3088.2563,3115.5818,3091.1133,3120.6814,3111.6963,3141.3306,3158.2107,3180.3606,3212.3271,3235.1846,3257.518,3319.0986,3323.448,3326.8064,3327.4485,3354.761,3351.9768,3336.926,3370.3237,3373.9866,3351.2761,3326.514,3334.8718,3348.794,3352.5645,3347.8071,3348.7913,3343.61,3366.6748,3361.448,3356.3252,3374.4912,3361.18,3400.4116,3396.5044,3400.914,3367.0815,3356.9783,nan,2842.3523,2843.4187,2841.9023,2841.9382,2841.8022
3233.979,3237.0146,3252.97,3302.378,3306.18,3306.5042,3305.4805,3309.368,3303.9863,3304.6433,3304.0571,3304.5159,3304.6406,3297.411,3297.4382,3297.619,3297.8145,3285.3071,3285.9128,3286.1157,3274.0613,3270.2332,3251.3452,3234.8677,3215.1702,3209.9702,3211.8462,3178.0679,3197.6548,3182.9124,3165.5398,3170.6533,3170.6692,3135.7705,3124.8123,3131.5183,3152.5374,3078.9336,3001.6877,3006.0554,2969.136,2969.815,2974.9265,2973.4045,2968.99,2971.5625,2975.6953,2967.5962,2961.0142,2961.8018,2992.6206,2992.7546,2992.219,nan,nan,nan,nan,nan,nan,nan,nan,nan,nan,nan,nan,1850.832,1849.9847,1852.6475,1852.6775,1851.993,1851.0737,1850.9989,1850.653,1846.8687,1845.7993,1844.2332,1843.4001,1844.673,1844.585,1844.7529,1847.5021,1847.423,1847.407,1848.668,1848.7379,1848.8129,1848.8741,1848.2714,1848.5648,1848.699,1845.2456,1845.4183,1845.189,1840.8132,1839.4069,1840.1454,1844.4398,1877.415,1969.9686,1951.0933,1978.5604,1939.0696,1877.5768,nan,nan,nan,1978.7397,nan,nan,nan,2946.9573,2947.915,2946.548,2947.846,2947.8198,2947.7524,2946.7136,2949.2227,2948.9978,2948.8813,2951.2869,2951.2876,2950.7156,2954.058,2954.622,2954.7593,2955.0308,2956.9622,2956.4072,2955.9883,2957.9536,2957.526,2957.3066,2958.9814,2959.073,2958.5295,3019.217,3082.1467,3089.7432,3055.3467,3083.888,3076.4607,3078.3188,3104.013,3087.254,3129.3347,3112.1045,3153.1028,3162.8362,3178.3042,3200.3948,3210.767,3246.6355,3328.3088,3325.3137,3323.2097,3314.2117,3320.3232,3353.6042,3349.086,3373.0488,3368.648,3345.3152,3342.8127,3335.8333,3335.026,3347.5059,3358.013,3354.327,3347.013,3357.0835,3360.471,3354.6174,3371.1938,3360.372,3398.843,3396.3823,3405.087,3362.561,3356.7937,nan,2835.96,2842.6885,2841.2476,2841.4204,2841.3752
3234.8816,3237.3713,3253.1208,3303.345,3304.898,3305.3809,3305.1045,3309.131,3303.9248,3304.34,3304.075,3304.285,3304.44,3297.5046,3297.496,3297.5984,3297.8376,3284.686,3284.4097,3286.7986,3274.3738,3262.0376,3252.771,3225.0996,3213.885,3219.36,3230.3337,3194.866,3189.3972,3187.7495,3175.3977,3171.4146,3171.0813,3125.9114,3131.5024,3128.544,3155.5654,3080.5142,3002.0686,3008.433,2970.7205,2971.3516,2976.6912,2973.6638,2969.9866,2972.7307,2977.658,2966.814,2961.5886,2962.6692,2991.6301,2992.1592,2991.8247,nan,nan,nan,nan,nan,nan,nan,nan,nan,nan,nan,nan,1850.6398,1849.8632,1852.1783,1852.6642,1851.7122,1850.495,1850.9457,1851.0077,1849.078,1849.2141,1846.8853,1844.5645,1844.8469,1844.6193,1844.6716,1847.7654,1847.5906,1847.5125,1848.7312,1848.7317,1848.7678,1848.8412,1848.1323,1848.3788,1848.6418,1845.0544,1844.7974,1843.5674,1840.7274,1839.8352,1840.2166,1840.0428,1853.796,1877.7166,1869.1056,1915.3525,1874.6862,1869.7424,1978.7397,1978.7397,nan,nan,nan,nan,nan,2947.0273,2948.117,2946.7944,2947.9722,2947.8813,2947.7893,2946.886,2949.3418,2949.1091,2948.9956,2951.2524,2951.2576,2950.6997,2954.2761,2954.789,2954.756,2955.0166,2956.8757,2956.4666,2956.0613,2957.9695,2957.5972,2957.3015,2959.088,2959.2383,2958.952,2987.8013,3088.2751,3060.6592,3023.982,3083.2437,3069.0938,3078.2878,3104.0125,3108.64,3132.7102,3116.491,3159.4458,3164.6096,3176.9097,3202.1965,3223.0215,3233.6792,3328.7783,3322.966,3319.0576,3312.5767,3333.5825,3333.373,3352.2483,3355.4136,3355.8381,3339.6357,3340.8662,3343.7983,3335.6787,3349.6729,3352.207,3357.1636,3354.8132,3355.9473,3367.6267,3371.461,3375.051,3376.268,3404.9636,3391.9614,3409.528,3389.6606,nan,2835.2336,2835.5142,2841.6912,2840.137,2840.5696,2840.915
3232.961,3239.61,3247.3289,3291.3013,3295.4707,3296.398,3295.5237,3303.6643,3295.3462,3296.5823,3299.947,3301.069,3300.8503,3291.6248,3291.555,3289.817,3282.8516,3265.2097,3262.101,3272.0603,3248.1523,3237.5957,3239.1743,3216.9102,3175.4917,3218.4346,3204.8984,3190.7947,3181.555,3189.7546,3159.9995,3145.1196,3160.639,3115.4229,3126.4385,3124.4297,3147.8625,3055.5366,2994.3865,2998.7993,2968.2036,2968.6453,2972.264,2969.7388,2967.3257,2967.702,2968.7578,2965.7156,2960.1204,2961.3474,2997.3577,2997.3577,2997.3577,nan,nan,nan,nan,nan,nan,nan,nan,nan,nan,1849.2517,1855.0852,1853.5605,1853.1876,1852.2045,1852.5709,1852.5277,1850.3468,1850.2682,1850.6465,1849.297,1849.43,1849.1638,1850.3229,1850.503,1850.214,1849.3109,1849.1371,1848.9802,1848.9745,1847.9938,1848.4763,1848.5892,1848.6118,1845.7433,1845.8754,1845.2496,1839.5154,1839.3058,1838.519,1834.2034,1833.1736,1832.8892,1832.4515,1836.4835,1840.8042,1837.6948,1843.2698,1846.7225,1845.96,1842.7377,1843.3223,1871.7944,nan,nan,1988.6466,nan,2945.3213,2946.292,2945.0164,2946.3018,2946.27,2946.134,2945.2747,2947.8125,2947.5342,2947.2183,2949.9265,2950.4443,2949.7244,2951.8066,2952.1414,2952.3755,2952.5935,2954.0347,2953.5608,2953.4622,2954.9956,2954.6584,2954.2998,2956.1335,2956.2905,2958.3184,3025.352,3067.854,3063.6008,3045.9036,3047.1265,3046.7434,3046.5757,3103.2695,3127.5227,3099.5017,3109.4768,3156.3877,3173.8367,3170.225,3194.8916,3190.621,3180.518,3281.232,3319.855,3316.6455,3314.8035,3322.221,3303.2036,3318.1396,3305.577,3304.7522,3303.9666,3284.6787,3288.8804,3283.2214,3291.3655,3288.2283,3296.9805,3299.9873,3310.369,3308.2642,3308.796,3314.5964,3314.8474,3310.108,3308.2456,3365.521,nan,nan,2831.9714,2827.699,2835.038,2831.7385,2832.3086,2832.6047
3232.8208,3237.4165,3248.7556,3283.439,3291.558,3289.7717,3287.6948,3291.694,3288.583,3293.6816,3292.5137,3296.9314,3296.5496,3287.0447,3261.0608,3237.9688,3234.2397,3236.9324,3239.5598,3249.6995,3238.0234,3239.336,3244.4475,3209.965,3182.1448,3215.4004,3208.2537,3185.504,3191.1433,3191.1858,3163.6853,3148.2434,3163.5461,3129.7283,3130.3271,3124.031,3147.1318,3043.6736,2993.5728,2999.136,2968.2817,2968.4636,2971.2979,2971.0027,2968.9485,2968.427,2969.0437,2966.9036,2960.8894,2963.2207,2997.3577,2997.3577,2997.3577,nan,nan,nan,nan,nan,nan,nan,nan,nan,nan,1850.1915,1853.8523,1853.0435,1852.7635,1852.2871,1852.2292,1852.1788,1849.9755,1849.7882,1850.2115,1849.1978,1849.305,1848.8936,1848.3834,1847.7046,1849.8302,1849.4169,1848.9125,1848.8076,1848.3523,1847.6338,1847.6294,1847.7754,1847.9252,1844.4514,1843.9602,1842.9355,1838.112,1838.1805,1837.5681,1834.4447,1833.5903,1833.1836,1832.5955,1835.8446,1837.0405,1835.7858,1841.1836,1843.9016,1839.2535,1838.2258,1837.9032,1838.5226,nan,nan,1988.6466,nan,2943.7407,2946.385,2944.9658,2946.3684,2946.3076,2946.1807,2945.2893,2947.8787,2947.582,2947.312,2949.7344,2950.3206,2949.6997,2951.7231,2952.1162,2952.3777,2952.582,2954.0283,2953.5874,2953.4119,2954.9673,2954.6812,2954.3225,2956.17,2956.2856,2958.2502,3016.0078,3066.367,3068.5784,3063.0073,3056.0325,3053.875,3049.3066,3097.7864,3110.0764,3097.65,3113.5464,3151.8828,3172.018,3167.4998,3217.3635,3190.893,3170.188,3280.2568,3287.0112,3306.199,3316.1667,3316.3923,3291.0957,3306.4395,3297.3064,3306.316,3300.557,3269.3862,3280.4407,3281.4849,3291.3706,3291.9395,3294.7478,3285.1965,3299.8933,3311.3467,3310.6726,3336.6677,3330.8875,3313.454,3306.519,3287.681,3142.971,2898.8057,2827.382,2827.4006,2834.5647,2831.299,2831.9812,2832.2268
3232.0923,3238.6533,3249.6387,3273.4963,3281.0735,3287.3706,3281.95,3266.1526,3255.945,3240.3103,3276.344,3262.834,3242.0925,3238.412,3244.7195,3241.6938,3241.0796,3242.1335,3245.049,3239.938,3224.608,3232.3984,3228.4119,3210.6187,3227.0513,3221.826,3206.612,3170.149,3170.8818,3173.1504,3156.1306,3146.9993,3154.0696,3119.3694,3109.4192,3116.6018,3140.6777,3037.386,2992.9204,3000.5283,2967.0955,2968.568,2969.8164,2970.9211,2969.339,2968.9727,2969.2727,2966.9456,2961.5208,2963.6592,2997.3577,2997.3577,2997.3577,nan,nan,nan,nan,nan,nan,nan,nan,nan,nan,1855.2119,1855.9698,1853.0931,1852.2205,1852.1128,1852.0874,1852.0237,1849.9619,1849.7987,1850.0052,1848.2832,1848.5754,1848.599,1848.2194,1846.5309,1847.4948,1848.193,1847.995,1848.3091,1847.9344,1846.4423,1846.9216,1847.06,1847.2794,1843.3998,1842.1455,1840.9292,1837.2568,1837.2456,1836.8773,1835.5011,1834.8964,1834.078,1833.3263,1839.2478,1843.1301,1841.9636,1842.1942,1846.1324,1843.8424,1838.11,1837.6887,1837.6759,1837.7985,1988.6466,1988.6466,nan,2941.9106,2946.4487,2945.109,2946.4326,2946.37,2946.2563,2945.3882,2947.9243,2947.7097,2947.5151,2949.7852,2950.3884,2950.0876,2951.6523,2952.0828,2952.3167,2952.5417,2954.0376,2953.647,2953.4272,2955.004,2954.7573,2954.421,2956.208,2956.3223,2958.2708,3015.1096,3062.3157,3062.5796,3063.6992,3074.3838,3057.825,3063.122,3110.4343,3123.487,3110.0566,3098.9272,3168.2725,3174.2454,3169.0222,3198.45,3189.3198,3191.8127,3282.6777,3298.5908,3309.585,3299.1968,3305.9275,3287.58,3302.1228,3278.4558,3276.7341,3284.7527,3266.1848,3261.214,3260.189,3259.5588,3254.145,3256.5479,3252.6821,3262.231,3287.9766,3316.3264,3348.6135,3341.0342,3329.9373,3301.4473,3220.9426,2872.308,2863.2932,2827.814,2828.7742,2835.7698,2831.1785,2831.7288,2832.0496
3228.1086,3239.3755,3250.35,3230.4036,3229.757,3235.4395,3232.759,3207.1143,3153.6042,3168.165,3174.5693,3173.7925,3166.0286,3153.9207,3148.9639,3142.145,3145.0251,3185.0713,3188.7634,3181.6482,3180.5479,3200.548,3214.112,3174.5698,3202.1108,3203.8787,3160.9211,3120.2957,3121.5386,3132.1145,3131.8252,3129.2473,3133.145,3108.149,3098.4043,3071.6084,3120.6711,3029.0833,2986.6099,2992.5085,2959.7402,2966.7393,2970.6895,2957.205,2963.976,2968.3274,2969.1584,2951.362,2957.198,2957.177,nan,nan,nan,nan,nan,nan,nan,nan,nan,nan,nan,nan,1853.712,1846.7778,1846.6494,1849.612,1851.5836,1846.8237,1846.0781,1847.1405,1842.5653,1842.691,1843.5719,1841.1912,1841.8627,1841.7639,1841.5116,1838.8312,1838.4825,1838.49,1837.8883,1839.0638,1839.8938,1839.4615,1839.3859,1838.8282,1837.8242,1835.3777,1834.366,1833.9906,1831.5267,1831.3306,1831.296,1829.5525,1829.4336,1829.1974,1829.2661,1828.9307,1829.9691,1830.7604,1830.4431,1828.6072,1827.2107,1829.3262,1833.3536,1902.7974,1889.6182,1988.6467,nan,nan,2942.1553,2945.6345,2944.5645,2945.7349,2945.719,2945.614,2945.0232,2948.0647,2947.643,2947.2913,2950.2793,2951.6267,2951.5098,2952.5652,2952.5474,2952.8608,2953.2964,2953.697,2953.4048,2953.438,2954.953,2954.6018,2954.2646,2955.674,2955.4382,2959.462,2996.7676,3062.242,3062.7788,3058.7815,3060.7935,3063.0715,3067.7668,3106.2617,3107.8254,3119.9448,3119.9116,3145.542,3155.4277,3159.8528,3182.3506,3185.7263,3177.8936,3207.6052,3185.5142,3218.7434,3249.0518,3258.8416,3248.4348,3253.587,3246.0886,3246.8457,3248.5933,3224.8381,3220.1262,3220.9763,3226.3054,3204.1487,3207.939,3209.645,3190.7754,3200.434,3233.1067,3271.4424,3280.739,3289.94,3272.5437,3154.3796,3165.398,2922.7344,2829.1848,2828.2014,2839.5427,2826.9607,2827.2043,2827.6372
