3183.9111,3186.0415,3188.1753,3159.3396,3158.565,3158.888,3128.6956,3127.1143,3126.5037,3126.5544,3099.7307,3098.5625,3100.5078,3081.0037,3080.7554,3080.8945,3063.9211,3064.0522,3064.6453,3065.396,3047.9028,3047.508,3047.7476,3027.9624,3028.1675,3029.6917,3011.9114,3015.9,3018.9102,3020.7046,3001.9321,3007.1436,3006.762,2980.2156,2980.6826,2979.9912,nan,nan,nan,nan,nan,nan,nan,nan,nan,nan,nan,nan,nan,nan,nan,nan,nan,nan,nan,nan,nan,nan,nan,nan,nan,nan,nan,nan,nan,nan,nan,1168.2677,1168.3181,1168.1863,1156.2639,1156.8304,1159.2693,1151.3375,1152.6206,1154.3099,1148.5919,1148.2494,1148.3722,1148.8884,1146.9572,1147.0277,1147.1353,1145.2631,1145.4132,1145.4076,1142.9095,1142.6649,1142.6237,1142.778,1140.838,1141.1246,1141.2035,1139.3043,1139.2164,1139.1852,1137.6111,1137.4976,1137.4604,1137.4672,1136.4226,1136.4648,1136.4735,1135.5002,1135.5172,1135.492,1135.0142,1135.0055,1134.9967,1134.9958,1134.9086,1134.9148,1134.9181,1135.1422,1135.1796,1135.1929,1134.6533,1134.6495,1134.6022,1134.5869,1134.2295,1134.2206,1134.267,1134.3143,1134.4424,1134.4072,1135.6482,1135.3289,1135.1046,1134.962,1136.1871,1135.9097,1135.708,1140.8538,1143.6697,nan,2886.4749,2886.4749,2886.4749,2886.4749,2884.5696,2884.2615,2884.113,2902.8105,2902.898,2904.761,2915.1921,2914.73,2913.7925,2912.8933,2915.6445,2915.4922,2915.7493,2915.0337,2915.335,2915.4753,2912.4707,2912.4875,2912.528,2912.566,2909.8284,2909.8445,2909.8523,2908.4216,2908.4248,2908.4097,2908.0613,2907.9946,2907.8162,2908.0618,2903.2808,2906.224,2902.7102,2894.2473,2894.7183,2890.853,2879.4197,2883.2395,2883.2576,2883.1104,2877.0374,2876.4407,2877.3384,2875.9187,2878.7979,2878.2717,2897.4705,2899.1692,2903.891,2918.172,2902.273,2907.3066,2982.0842,3100.0664,3104.6072,3103.2012,3129.925,3126.5535,3121.6265,3117.9263,3136.7214,3135.4485,3133.4824,3152.2246,3147.1567,3144.34,3166.134,3165.3257,3267.7295,3278.4683,3354.8254,3348.5732,3343.3425,3419.9707,3423.064,3417.9753,3431.2083,3432.5789,3413.6597,3392.9082,3344.4329,3347.665,3347.8025,3360.1287,3362.461,3364.341,3381.36,3383.3245,3384.154,3384.5188,3392.169,3392.3997,3392.8792,3399.1428,3399.012,3399.311,3401.402,3401.8264,3401.9143,3402.01,3400.1826,3400.2026,3400.4075,3395.8582,3396.0046,3396.06,3378.8838,3379.0066,3378.6436,3377.4934,3359.8408,3359.247,3358.9526,3339.0413,3339.068,3339.313,3326.9136,3327.204,3327.2014,3327.2996,3313.8987,3313.6194,3313.654,3300.494,3300.4756,3300.6924,3286.76,3286.9817,3287.0068,3287.0452,3270.297,3270.302,3269.8584,3250.8674,3250.501,3250.5212,3231.9832,3231.9636,3232.049,3232.1846,3212.0125,3211.984,3211.475,3189.4817,3188.817,3188.1228,3165.8215,3165.3733,3165.1802,3165.4707,3146.7356,3146.8923,3146.9434,3129.7336,3129.7732,3129.922,3113.0479,3112.9902,3112.896,3112.9639,3097.4692,3097.4177,3097.524,3082.9707,3082.9072,3082.8474,3066.8784,3067.035,3066.836,3066.8152,3050.0127,3050.2485,3050.3894,3031.733,3031.7368,3031.7449
3182.3186,3188.7083,3192.192,3159.0745,3157.2827,3156.3,3124.6326,3123.2502,3123.1992,3124.2678,3098.3013,3098.2834,3100.8655,3082.0547,3078.7952,3077.0273,3061.518,3064.8877,3066.9575,3064.8418,3044.6553,3044.9736,3044.4885,3024.3145,3025.0222,3027.5066,3007.6858,3011.8406,3015.655,3017.7632,2996.9802,3000.9448,3000.2134,2969.8428,2969.77,2970.0269,nan,nan,nan,nan,nan,nan,nan,nan,nan,nan,nan,nan,nan,nan,nan,nan,nan,nan,nan,nan,nan,nan,nan,nan,nan,nan,nan,nan,nan,nan,nan,1168.2086,1168.2654,1168.1042,1156.2627,1156.8477,1159.2683,1151.2286,1151.7114,1153.5426,1148.9506,1148.4829,1148.4337,1149.0262,1147.0367,1146.932,1147.0706,1145.1981,1145.3596,1145.4154,1142.9335,1142.6824,1142.6818,1142.8418,1140.8293,1141.071,1141.1499,1139.264,1139.3247,1139.2834,1137.69,1137.5697,1137.5371,1137.4572,1136.3907,1136.4111,1136.4421,1135.5042,1135.4899,1135.4701,1134.9851,1135.0018,1134.9961,1134.981,1134.8904,1134.8525,1134.8755,1135.1003,1135.1544,1135.1646,1134.6321,1134.6008,1134.6183,1134.6451,1134.29,1134.3068,1134.294,1134.4291,1134.4614,1134.3885,1135.7936,1135.2979,1135.029,1134.8851,1136.251,1135.7764,1135.6558,1139.3754,nan,nan,2886.4749,2886.4749,2886.4749,2886.4749,2884.2363,2884.2195,2884.27,2905.3337,2905.8389,2906.2185,2915.103,2914.7212,2914.0652,2913.3794,2915.7246,2915.7065,2916.0806,2915.0918,2915.3733,2915.4763,2912.4722,2912.482,2912.5735,2912.6838,2909.883,2909.8748,2909.8325,2908.376,2908.3748,2908.3298,2907.9844,2908.0022,2907.6733,2907.9841,2903.1694,2904.7368,2902.4907,2893.542,2893.982,2891.804,2879.789,2882.4534,2882.786,2883.0925,2877.092,2876.6755,2877.3494,2876.6829,2880.08,2878.5503,2898.045,2898.6423,2901.3313,2916.832,2902.0947,2907.2444,2987.4888,3098.8975,3104.3164,3103.653,3130.2075,3126.3606,3120.695,3117.8323,3136.628,3135.0037,3133.4565,3152.895,3148.3494,3145.539,3170.076,3163.9924,3263.5095,3280.7336,3365.916,3356.4917,3347.2346,3417.9321,3420.3423,3417.4238,3434.1492,3429.537,3428.89,3410.4326,3348.237,3347.247,3349.2617,3360.4885,3362.2368,3364.5088,3382.11,3382.7368,3384.023,3384.4043,3392.0098,3392.43,3393.0442,3399.3083,3399.2742,3399.7322,3401.5615,3401.95,3402.0188,3402.082,3400.2083,3400.1938,3400.3193,3395.8726,3395.969,3396.0486,3378.8254,3379.0566,3378.751,3377.5356,3360.0073,3359.4778,3358.7502,3338.9106,3338.9163,3339.2244,3326.8196,3327.1418,3327.2202,3327.1777,3313.8823,3313.6448,3313.7004,3300.5237,3300.5605,3300.6726,3286.8325,3286.995,3286.8484,3286.9146,3270.1125,3270.094,3269.7307,3250.9268,3250.7446,3250.561,3231.9907,3232.0217,3231.9915,3232.1743,3211.7446,3211.791,3211.3757,3189.6123,3188.9446,3188.5027,3166.1445,3165.6794,3165.4165,3165.7603,3146.917,3146.9246,3147.1055,3129.7126,3129.5996,3129.6465,3112.831,3112.7017,3112.7634,3112.8643,3097.3992,3097.4402,3097.7053,3082.7913,3082.7722,3082.825,3067.0552,3066.9712,3066.959,3066.9421,3050.1794,3050.1943,3050.4087,3032.0334,3031.5999,3031.507
3182.3567,3181.8643,3180.8125,3154.4604,3158.0374,3159.5913,3130.5935,3128.7236,3124.698,3121.8523,3096.8298,3096.279,3097.5745,3078.493,3078.7368,3079.4146,3063.5034,3064.97,3066.3835,3064.9023,3045.8672,3045.1262,3046.0244,3027.7563,3029.0823,3030.7473,3013.2957,3017.9954,3021.0327,3022.2307,3004.1602,3010.6182,3011.791,2977.9116,2978.0798,2977.7336,nan,nan,nan,nan,nan,nan,nan,nan,nan,nan,nan,nan,nan,nan,nan,nan,nan,nan,nan,nan,nan,nan,nan,nan,nan,nan,nan,nan,nan,nan,nan,1169.6846,1169.871,1169.3555,1157.013,1157.5249,1159.8074,1151.9995,1152.3788,1153.8491,1149.3884,1149.4574,1149.657,1150.5448,1147.895,1147.8575,1147.9542,1145.9474,1145.978,1145.901,1143.6155,1143.5344,1143.604,1143.7476,1141.8561,1142.0183,1142.0941,1140.5306,1140.5237,1140.4901,1138.8706,1138.7576,1138.6641,1138.6456,1137.248,1137.1808,1137.2058,1136.0826,1136.0973,1136.1368,1135.6991,1135.7043,1135.7037,1135.6926,1135.7051,1135.6932,1135.6852,1136.2701,1136.3167,1136.3071,1136.0459,1136.0912,1136.2472,1136.1188,1135.4825,1134.8702,1134.7759,1135.1692,1135.0739,1134.9512,1136.5834,1135.854,1135.3473,1135.2659,1137.0544,1136.0032,1135.9182,1142.5593,nan,nan,2886.4749,2886.475,2886.4746,2886.4749,2884.2568,2884.2256,2884.2986,2888.842,2889.3857,2890.0283,2900.6497,2901.5051,2900.8647,2899.7068,2903.8462,2903.6577,2903.6533,2904.6,2905.064,2905.2502,2902.991,2903.1292,2902.9778,2902.4849,2898.7297,2898.8088,2897.9512,2895.6077,2893.433,2892.8997,2894.2556,2892.6475,2897.2607,2895.801,2895.9812,2900.5564,2896.7664,2886.2312,2884.7437,2881.6152,2869.301,2873.183,2873.1753,2873.7378,2867.8796,2867.5613,2867.549,2868.0952,2872.2346,2870.4785,2888.8962,2889.9062,2889.747,2904.1755,2895.535,2900.063,2975.7493,3089.9502,3097.1255,3097.1155,3125.192,3121.439,3114.8176,3111.7654,3131.0662,3129.5437,3127.0251,3145.0784,3142.1196,3141.2595,3163.4827,3154.5999,3249.1062,3271.7043,3345.6516,3342.9807,3336.2935,3365.739,3368.7795,3378.7397,3468.3296,3452.8591,3442.7083,3445.3708,3452.1453,3443.419,3435.3037,3404.2595,3401.8203,3407.3887,3405.9106,3408.0793,3410.3416,3413.2126,3411.7837,3411.9744,3412.6802,3416.3813,3416.8506,3417.2397,3417.6018,3417.9626,3417.8088,3417.8555,3413.038,3413.1196,3413.3342,3404.4036,3404.6064,3404.7637,3386.1333,3386.4624,3386.0605,3384.8215,3365.7576,3365.4126,3364.2593,3344.1814,3344.0825,3344.5198,3330.5757,3331.0134,3331.0403,3331.0105,3317.1077,3316.8894,3316.9458,3303.2368,3303.3252,3303.4036,3287.4456,3287.5464,3287.3933,3287.4436,3271.6804,3271.5283,3271.5806,3254.2986,3254.1812,3254.0352,3236.6763,3236.6064,3236.601,3236.6562,3216.6033,3216.4392,3216.2354,3194.6326,3194.346,3194.1792,3172.8857,3172.4001,3172.5347,3172.5095,3152.1948,3152.2886,3152.1584,3133.3396,3133.253,3133.0269,3115.6018,3115.7847,3115.8462,3115.9314,3100.282,3100.2744,3100.385,3085.571,3085.72,3085.8894,3069.756,3069.7332,3069.8027,3069.5977,3053.05,3053.0386,3052.9375,3035.1104,3035.0627,3034.8801
3176.3418,3178.5173,3179.4692,3154.0886,3156.3704,3158.358,3130.8525,3127.3718,3124.3547,3121.924,3097.0793,3096.9941,3097.6243,3078.043,3078.6172,3079.282,3062.9805,3063.299,3063.8906,3063.5623,3045.8213,3045.3572,3046.0623,3028.1252,3028.7192,3030.2854,3013.5466,3018.2449,3021.3794,3022.5115,3005.2717,3010.9824,3011.4119,2977.9265,2977.9624,2977.4917,nan,nan,nan,nan,nan,nan,nan,nan,nan,nan,nan,nan,nan,nan,nan,nan,nan,nan,nan,nan,nan,nan,nan,nan,nan,nan,nan,nan,nan,nan,nan,1169.7445,1169.8065,1169.2222,1156.649,1157.2928,1159.757,1151.8384,1152.4987,1153.466,1149.2014,1149.4625,1149.9673,1150.6001,1147.9464,1147.9862,1148.0598,1145.9722,1145.9419,1145.7953,1143.6707,1143.6399,1143.6475,1143.7455,1141.8048,1141.895,1142.013,1140.5139,1140.4486,1140.4547,1138.792,1138.6802,1138.6749,1138.6953,1137.2051,1137.1018,1137.1232,1136.0217,1136.0674,1136.1564,1135.7103,1135.7161,1135.7091,1135.7062,1135.7162,1135.7157,1135.7172,1136.305,1136.3381,1136.3512,1136.1212,1136.25,1136.445,1136.0048,1134.9198,1134.6979,1134.6827,1135.259,1135.1669,1134.9504,1136.8618,1136.0319,1135.322,1135.1196,1137.2262,1135.7441,1135.7126,1142.8383,1143.7882,nan,2886.4749,2886.4746,2886.4749,2886.4749,2884.1978,2884.2107,2884.3342,2891.9683,2892.7043,2891.8384,2902.857,2902.665,2902.4844,2901.2634,2906.2163,2906.973,2899.1687,2894.1584,2895.388,2892.3945,2886.8135,2885.957,2885.1138,2884.9795,2882.9116,2883.1648,2883.8054,2881.9731,2882.025,2881.91,2886.1892,2890.1448,2892.767,2903.3691,2897.258,2896.1514,2897.3694,2886.0789,2884.6448,2881.6306,2869.1704,2872.442,2872.8308,2873.1548,2867.9934,2867.7583,2867.512,2867.1902,2872.5845,2870.5396,2890.3638,2891.1543,2887.6523,2902.572,2895.3936,2900.565,2964.2563,3089.0476,3096.8748,3097.2036,3125.3384,3122.2256,3115.218,3112.221,3131.537,3129.9482,3126.6477,3145.0095,3141.4954,3140.8958,3167.445,3154.3413,3215.2388,3271.9941,3345.052,3344.1248,3335.3594,3363.107,3363.8467,3377.5815,3470.6597,3449.3232,3442.005,3451.0154,3460.054,3460.6965,3450.5542,3408.3481,3405.1445,3405.005,3403.3945,3404.4478,3408.1863,3409.8965,3409.9468,3411.3142,3412.0728,3415.5537,3416.7864,3417.2646,3417.8708,3417.909,3418.1584,3418.0808,3413.2104,3413.3428,3413.4163,3404.4849,3404.6687,3404.8481,3386.255,3386.4,3386.104,3384.8672,3365.8171,3365.168,3364.5186,3344.241,3344.0964,3344.5735,3330.5652,3330.9543,3331.0327,3331.0325,3317.0708,3316.917,3316.9749,3303.2822,3303.367,3303.426,3287.5784,3287.5005,3287.3584,3287.2598,3271.5828,3271.5088,3271.5647,3254.3777,3254.4023,3254.239,3236.7961,3236.8022,3236.5723,3236.5142,3216.2773,3216.1338,3215.904,3194.6423,3194.6072,3194.4788,3173.0237,3172.9958,3172.674,3172.5146,3152.0417,3152.1528,3152.0398,3133.1594,3133.1333,3133.032,3115.8074,3115.8687,3115.858,3116.063,3100.2803,3100.2979,3100.3306,3085.5615,3085.6785,3085.685,3069.7341,3069.9749,3070.03,3069.5896,3053.0393,3053.0203,3052.883,3035.0967,3035.1296,3034.9326
3176.3474,3174.9763,3176.9841,3154.1677,3155.3616,3156.54,3128.172,3126.2407,3122.663,3121.1377,3096.365,3096.8633,3096.77,3078.5537,3078.843,3079.631,3062.7156,3063.3154,3063.0837,3063.2065,3045.3044,3045.1106,3045.4456,3027.9177,3029.354,3031.13,3014.7986,3019.1895,3022.1477,3023.583,3006.1719,3011.5488,3011.8054,2977.5188,2977.5142,2977.1194,nan,nan,nan,nan,nan,nan,nan,nan,nan,nan,nan,nan,nan,nan,nan,nan,nan,nan,nan,nan,nan,nan,nan,nan,nan,nan,nan,nan,nan,nan,nan,1169.3533,1169.325,1168.9585,1156.4684,1157.28,1160.081,1151.9384,1152.3274,1153.5292,1149.3059,1149.4047,1150.0492,1150.4574,1147.8491,1147.9397,1148.0486,1145.9744,1145.9137,1145.8203,1143.7137,1143.6615,1143.6418,1143.6842,1141.7721,1141.8945,1141.9377,1140.3656,1140.3492,1140.2767,1138.7899,1138.6906,1138.6736,1138.6809,1137.2045,1137.0587,1137.1099,1135.9891,1136.1172,1136.1852,1135.7202,1135.7249,1135.7125,1135.7194,1135.7395,1135.7454,1135.7441,1136.2733,1136.2856,1136.4031,1136.1854,1136.3044,1136.4023,1135.8545,1134.6991,1134.6898,1134.6836,1135.2227,1135.1742,1134.9646,1136.7692,1136.0145,1135.2964,1135.1215,1137.3885,1135.9067,1135.9055,1143.2578,1143.7856,nan,2886.4749,2886.475,2886.4749,2886.4746,2884.1296,2884.1965,2884.6294,2881.8945,2882.0842,2882.3342,2883.7817,2883.5757,2883.0964,2882.9802,2885.7012,2886.133,2886.2993,2885.5046,2885.5046,2885.5168,2884.9326,2885.0112,2884.9678,2884.9023,2882.9885,2883.0884,2883.44,2882.4548,2882.422,2882.544,2890.3818,2892.2927,2894.263,2906.9,2894.2815,2897.7214,2896.4368,2884.91,2884.491,2881.36,2869.1116,2872.0425,2872.9136,2873.2986,2867.946,2867.702,2867.6218,2867.018,2875.5947,2870.6287,2890.9087,2890.7646,2886.9604,2900.0583,2895.2012,2901.1704,2944.3677,3089.3752,3096.4644,3098.1008,3125.3853,3123.1692,3115.3362,3111.78,3131.6013,3129.449,3127.2712,3145.5186,3141.6082,3140.9282,3170.9612,3153.5144,3223.1787,3276.2688,3345.7468,3345.7307,3336.84,3362.9392,3364.6606,3377.7407,3471.2375,3455.885,3447.8896,3449.769,3471.5505,3467.4692,3458.6619,3411.602,3406.3284,3405.646,3404.7244,3405.4045,3406.836,3409.7896,3409.9993,3410.9526,3412.4622,3415.117,3416.528,3416.5771,3417.7844,3417.9316,3418.04,3418.0193,3413.251,3413.2996,3413.3655,3404.4604,3404.7007,3404.9006,3386.3577,3386.4465,3386.0845,3384.896,3365.7393,3365.0186,3364.716,3344.307,3344.2214,3344.44,3330.5818,3330.871,3330.9648,3330.9795,3317.089,3317.0576,3317.127,3303.3965,3303.4697,3303.5063,3287.5046,3287.533,3287.3315,3287.1553,3271.4053,3271.3682,3271.537,3254.2537,3254.4563,3254.4663,3237.0874,3236.8882,3236.6177,3236.2114,3215.9897,3215.6707,3215.8108,3194.6335,3194.6191,3194.3215,3173.3186,3173.2454,3172.9236,3172.6958,3151.9495,3151.9524,3152.0376,3133.087,3133.207,3133.3105,3115.8464,3115.8542,3115.913,3116.0652,3100.4265,3100.2808,3100.3684,3085.659,3085.716,3085.8171,3070.0232,3069.9998,3069.8567,3069.6084,3052.9807,3053.1514,3053.0232,3035.3005,3035.1045,3035.131
3177.7173,3177.5942,3179.3884,3155.0503,3156.0652,3156.3943,3127.9343,3126.5386,3124.6284,3123.4727,3097.827,3097.3462,3098.0369,3079.3064,3079.5723,3080.0977,3063.2327,3063.2466,3063.5732,3064.4285,3047.6494,3047.3354,3047.1157,3029.98,3030.7776,3032.0168,3014.6648,3019.1816,3022.2097,3023.1753,3006.8667,3014.1091,3013.575,2976.298,2976.2932,2976.2922,nan,nan,nan,nan,nan,nan,nan,nan,nan,nan,nan,nan,nan,nan,nan,nan,nan,nan,nan,nan,nan,nan,nan,nan,nan,nan,nan,nan,nan,nan,1170.4471,1169.5034,1169.0188,1168.8052,1156.2997,1157.0892,1159.7781,1152.1256,1152.4553,1153.5146,1149.3368,1149.5543,1150.0177,1150.396,1147.8145,1147.9918,1148.0253,1145.8757,1145.9232,1145.8826,1143.7623,1143.6819,1143.6211,1143.6879,1141.7817,1141.8835,1141.9337,1140.3494,1140.375,1140.3217,1138.8625,1138.6927,1138.7198,1138.7546,1137.2423,1137.1405,1137.1588,1136.0721,1136.1494,1136.1807,1135.7242,1135.7372,1135.7394,1135.74,1135.7722,1135.759,1135.7322,1136.2916,1136.3434,1136.424,1136.1672,1136.1797,1136.1388,1135.7194,1134.7592,1134.6705,1134.6674,1135.1097,1135.0304,1134.9421,1136.2319,1135.5684,1135.1321,1135.0024,1137.1067,1135.9509,1136.0397,1143.3303,1143.4769,nan,2886.4749,2886.4749,2886.4749,2886.4746,2884.2148,2884.465,2885.5508,2887.6177,2897.5447,2917.2393,2935.3713,2948.0493,2971.9453,3000.5342,3005.6465,3013.1343,3002.837,2971.3708,2962.6753,2977.2898,2974.7322,2980.0664,2982.4346,2970.6282,2966.1982,2958.5269,2958.6274,2968.6343,2975.5889,2971.2583,2949.3352,2946.8884,2946.2043,2947.4832,2920.8738,2897.8,2895.5435,2884.341,2884.371,2881.5862,2869.1968,2872.1748,2872.7742,2873.2593,2868.1326,2867.7017,2867.8914,2866.7468,2880.469,2870.7375,2891.349,2890.2634,2887.7998,2898.0574,2895.5686,2902.3716,2929.246,3092.9873,3098.4133,3097.7915,3125.1582,3123.9424,3116.2937,3111.8762,3131.6948,3129.335,3127.333,3145.971,3141.862,3141.2422,3171.8542,3153.9346,3219.7522,3276.5698,3346.9697,3346.798,3339.725,3365.4717,3361.8374,3371.565,3467.8362,3455.85,3451.5005,3450.71,3475.3804,3466.667,3463.9417,3411.2358,3411.7754,3409.7627,3406.8032,3405.0833,3407.2412,3409.8574,3410.5806,3411.451,3411.919,3415.1902,3416.132,3416.8716,3417.5786,3417.9834,3417.7192,3417.733,3412.9717,3413.1155,3413.2747,3404.4683,3404.6863,3404.8423,3386.3364,3386.5188,3386.2031,3384.936,3366.087,3365.3103,3364.86,3344.353,3344.2231,3344.438,3330.553,3330.8396,3330.9421,3330.9973,3317.0403,3317.076,3317.166,3303.4265,3303.4363,3303.435,3287.446,3287.4363,3287.2913,3287.2961,3271.2688,3271.2354,3271.2517,3254.1887,3254.4197,3254.512,3236.9956,3236.864,3236.5645,3236.1575,3215.783,3215.6587,3215.9006,3194.607,3194.5242,3194.4238,3173.3425,3173.2583,3173.0635,3173.0066,3152.1882,3152.1575,3152.1587,3133.4294,3133.3516,3133.3645,3115.8264,3115.9102,3115.9846,3116.19,3100.3528,3100.392,3100.515,3085.71,3085.686,3086.0305,3069.976,3070.1353,3069.9675,3069.5605,3052.8772,3052.8875,3052.7368,3035.228,3035.173,3035.2566
3170.9526,3169.9973,3171.275,3150.7034,3151.0825,3151.2012,3126.551,3125.966,3125.3047,3123.7725,3101.4534,3100.6096,3100.0732,3080.2058,3080.8433,3081.2148,3063.3787,3063.5833,3063.8843,3063.1028,3046.7249,3046.2192,3045.9307,3032.037,3032.7012,3034.3977,3020.1833,3024.924,3027.9592,3028.879,3013.159,3020.6199,3020.492,2984.689,2984.3516,2984.2346,nan,nan,nan,nan,nan,nan,nan,nan,nan,nan,nan,nan,nan,nan,nan,nan,nan,nan,nan,nan,nan,nan,nan,nan,nan,nan,nan,nan,nan,nan,1173.4595,1171.878,1170.9885,1170.2854,1158.6448,1159.4865,1162.13,1154.0808,1154.6532,1155.4614,1150.3462,1150.8478,1151.3701,1152.1283,1148.8425,1149.0713,1149.0492,1146.7096,1146.7365,1146.705,1144.6377,1144.598,1144.579,1144.6154,1142.9786,1143.0255,1143.0624,1141.5887,1141.5902,1141.6093,1140.3,1140.2639,1140.159,1140.0111,1138.3142,1138.2205,1138.2456,1136.9197,1137.0378,1137.0671,1136.5927,1136.5967,1136.6451,1136.6454,1136.7472,1136.7094,1136.704,1137.5477,1137.5565,1137.533,1137.7532,1137.7142,1137.8187,1137.7186,1137.4724,1137.4303,1137.1287,1136.76,1136.6815,1136.808,1137.7715,1137.4718,1137.2745,1136.7704,1136.5219,1135.9652,1135.962,1143.8402,1143.8402,nan,3053.7976,3054.9702,3051.1958,3044.8633,3090.3362,3087.749,3076.0464,3087.1462,3089.0159,3083.4575,3077.1191,3079.9675,3079.5652,3075.0388,3057.4875,3071.7854,3049.0085,3028.3545,3021.8225,3027.5605,3034.7593,3037.407,3035.6145,3035.5981,3036.675,3037.1763,3036.8027,3028.639,3029.671,3033.1165,3009.157,3007.6116,3008.4612,3026.0354,2991.123,2939.6611,2899.6523,2874.8826,2874.6528,2872.4907,2862.2146,2864.1,2864.4893,2865.5203,2860.693,2860.0625,2860.0317,2860.5254,2873.831,2864.523,2885.1265,2883.449,2881.9517,2889.1418,2889.4766,2896.6016,2916.286,3086.4236,3092.1384,3089.8486,3119.8416,3118.3628,3110.9883,3106.2375,3127.1768,3125.0295,3122.0027,3141.1445,3137.7908,3136.481,3167.404,3154.1436,3216.2175,3269.6995,3337.2087,3337.442,3334.8882,3343.4539,3341.1711,3344.5122,3388.1519,3388.5369,3396.573,3392.1423,3455.7134,3464.2986,3460.4646,3477.7317,3476.0718,3470.0366,3443.9446,3441.6582,3440.9597,3442.2117,3434.9734,3435.5781,3436.5957,3432.7097,3433.2012,3433.6396,3428.4846,3428.6682,3428.9646,3429.0515,3419.3716,3419.5112,3419.8115,3408.2412,3408.4417,3408.6755,3389.2422,3389.356,3388.8223,3388.1106,3367.838,3367.1863,3366.828,3344.3997,3344.2146,3344.5093,3329.306,3329.5981,3329.7444,3329.8022,3314.0217,3314.0322,3314.013,3300.1733,3300.051,3300.239,3283.4072,3283.263,3283.079,3283.0063,3267.5947,3267.5774,3267.7305,3251.796,3252.124,3252.1821,3234.6335,3234.518,3234.3218,3233.7852,3214.4092,3214.1943,3214.4875,3193.7922,3193.7434,3193.6868,3174.353,3174.4055,3174.4175,3174.2422,3153.8855,3153.8757,3153.782,3134.798,3134.859,3134.7253,3117.254,3117.3513,3117.3855,3117.6248,3101.5212,3101.5264,3101.6287,3086.9937,3087.0007,3087.3115,3071.087,3071.2354,3071.3726,3071.094,3054.5168,3054.648,3054.7,3037.3838,3037.5051,3037.5586
3167.0615,3165.4414,3166.5093,3146.3762,3146.9512,3147.1162,3124.8813,3125.0635,3124.6086,3123.8384,3101.3286,3100.5059,3100.3965,3080.999,3081.2563,3081.4075,3063.77,3063.235,3062.025,3061.1233,3044.9001,3044.1775,3044.5178,3029.6162,3030.355,3032.8157,3017.8857,3022.8862,3026.1228,3027.1404,3010.6274,3016.2517,3017.2356,2983.1782,2982.4229,2983.0984,nan,nan,nan,nan,nan,nan,nan,nan,nan,nan,nan,nan,nan,nan,nan,nan,nan,nan,nan,nan,nan,nan,nan,nan,nan,nan,nan,nan,nan,nan,1172.8661,1171.6248,1171.1306,1170.8021,1158.8701,1159.8507,1162.2273,1154.0686,1155.0493,1155.5197,1150.1342,1150.847,1151.4413,1152.1453,1148.8975,1149.112,1149.1722,1146.8057,1146.7517,1146.6915,1144.6373,1144.6254,1144.6417,1144.6929,1142.9707,1143.0549,1143.0085,1141.5326,1141.5105,1141.5044,1140.1897,1140.2607,1140.1301,1140.0977,1138.4484,1138.2933,1138.3802,1137.0032,1137.0541,1137.0842,1136.6119,1136.6328,1136.6564,1136.6256,1136.7274,1136.6953,1136.6882,1137.5449,1137.4984,1137.4816,1137.6744,1137.7302,1137.8633,1138.0178,1138.207,1137.8198,1137.5582,1137.4469,1137.685,1137.4655,1138.0214,1137.5808,1136.5526,1135.8298,1137.154,1136.0399,1136.0552,1143.8402,1143.8402,1143.8402,3039.4194,3039.3777,3033.424,3033.3755,3090.4382,3088.2827,3078.5955,3092.2468,3092.8953,3086.9885,3077.6953,3082.5461,3081.35,3075.3555,3056.5388,3073.5464,3054.9043,3029.8484,3023.26,3026.8406,3037.6555,3039.0703,3036.2175,3037.098,3039.4534,3039.7527,3039.0457,3028.6238,3030.1985,3033.4998,3012.443,3012.75,3011.8853,3024.747,2999.8867,2943.3179,2898.851,2873.3914,2872.8525,2873.5374,2863.414,2864.1106,2864.8308,2866.099,2860.8042,2860.319,2860.2556,2860.5195,2874.6865,2864.593,2886.6726,2883.423,2883.6565,2890.4158,2889.8535,2897.431,2904.0771,3086.5908,3092.2493,3090.0747,3119.541,3118.2783,3111.108,3106.2935,3127.1567,3125.1733,3122.4653,3141.7136,3137.9744,3137.052,3168.7534,3156.9312,3208.874,3268.2617,3338.1653,3338.368,3335.6807,3344.7202,3341.9216,3346.7534,3382.337,3382.5476,3396.5742,3392.9578,3468.4287,3470.4985,3459.467,3482.3271,3481.8364,3476.7805,3444.5725,3443.699,3440.6902,3443.1475,3433.8958,3435.477,3436.62,3432.5981,3432.8145,3432.812,3428.1755,3428.3213,3428.5828,3428.7112,3419.376,3419.5771,3419.8237,3408.2908,3408.585,3408.7788,3389.2446,3389.482,3389.1497,3388.2014,3367.9314,3367.3342,3366.924,3344.42,3344.4033,3344.5942,3329.355,3329.5754,3329.7634,3329.718,3314.1184,3314.173,3314.1216,3300.2559,3300.2278,3300.1729,3283.2815,3283.2131,3282.9695,3282.9033,3267.7773,3267.5352,3267.6533,3251.9097,3252.2815,3252.1265,3234.5188,3234.622,3234.3591,3234.015,3214.47,3214.162,3214.368,3194.0747,3193.994,3194.0842,3174.724,3174.4905,3174.4465,3174.4277,3154.1072,3153.8713,3153.8242,3134.8413,3134.9028,3134.8828,3117.2666,3117.3115,3117.3708,3117.5005,3101.4817,3101.5955,3101.6958,3087.0024,3086.9978,3087.1426,3071.0615,3070.9492,3071.3013,3071.2449,3054.7402,3054.7356,3054.86,3037.5732,3037.3708,3037.3643
3165.6782,3165.589,3166.7617,3146.1082,3146.5576,3146.63,3123.8403,3123.3186,3123.1804,3122.825,3099.747,3098.5044,3098.0615,3079.6665,3080.0938,3080.2,3062.5842,3061.917,3061.9028,3062.0522,3045.0464,3044.6243,3045.3127,3029.6082,3030.6487,3032.81,3017.151,3021.9485,3025.2322,3026.333,3008.5544,3015.5022,3015.8735,2981.2878,2980.5857,2982.6353,nan,nan,nan,nan,nan,nan,nan,nan,nan,nan,nan,nan,nan,nan,nan,nan,nan,nan,nan,nan,nan,nan,nan,nan,nan,nan,nan,nan,nan,nan,1174.7596,1174.5753,1170.7839,1170.8252,1159.924,1160.4478,1163.0785,1154.3618,1154.8701,1155.2239,1150.2875,1150.9165,1151.5753,1152.2745,1148.8728,1149.0066,1149.0334,1146.6868,1146.689,1146.6912,1144.6475,1144.6643,1144.6967,1144.7355,1142.9725,1143.0337,1143.0083,1141.5928,1141.593,1141.5928,1140.2949,1140.2645,1140.2211,1140.1425,1138.3625,1138.2247,1138.3752,1136.9537,1137.0453,1137.109,1136.6306,1136.6759,1136.6835,1136.6201,1136.6501,1136.6605,1136.7146,1137.515,1137.485,1137.4529,1137.6989,1137.6549,1138.0038,1138.2106,1139.2893,1139.5337,1139.2821,1139.4865,1139.3624,1139.977,1140.8195,1140.839,1139.4476,1136.1804,1138.1426,1136.1375,1136.1216,1143.8402,1143.8402,1143.8402,3044.168,3042.5027,3036.2703,3036.7148,3090.7134,3088.3013,3074.8984,3077.4968,3078.7517,3069.8538,3080.379,3082.1807,3078.4512,3070.6646,3042.4502,3049.8296,3042.3787,3032.5435,3029.2107,3029.3936,3036.5298,3039.4036,3039.3943,3038.6287,3037.8591,3038.4514,3037.485,3029.3687,3031.902,3033.6108,3012.6567,3014.4004,3014.4866,3025.064,3002.2454,2944.535,2897.2896,2871.416,2869.5725,2869.4138,2860.373,2863.8103,2864.3818,2866.0935,2861.218,2860.4255,2860.5571,2860.1814,2873.621,2864.542,2885.8813,2883.0593,2884.095,2889.712,2890.3657,2897.431,2897.4043,3085.7205,3091.784,3090.3472,3119.167,3118.3472,3110.6724,3106.011,3127.6306,3125.4006,3122.8535,3142.1445,3137.9663,3137.6277,3170.469,3157.7876,3190.4106,3270.3027,3339.5703,3339.723,3336.2622,3349.605,3345.212,3342.4536,3367.5188,3377.9414,3390.099,3390.727,3466.0425,3466.1294,3459.7085,3480.5903,3481.795,3476.54,3447.6047,3446.2847,3441.971,3441.4885,3432.7844,3433.8691,3435.2734,3431.1545,3431.7866,3432.164,3427.5352,3427.6062,3427.9717,3428.292,3419.2717,3419.5347,3419.8645,3408.4185,3408.612,3408.8262,3389.2607,3389.505,3389.0457,3388.1746,3367.8962,3367.3418,3366.8147,3344.4531,3344.354,3344.6313,3329.2012,3329.5679,3329.754,3329.6604,3313.8894,3314.1658,3314.11,3300.246,3300.2275,3300.165,3283.2593,3283.1626,3282.9246,3283.0713,3267.7412,3267.4404,3267.7153,3251.8577,3252.1863,3252.0352,3234.5776,3234.4019,3234.1418,3233.9338,3214.5767,3214.3145,3214.5305,3193.9673,3194.2534,3194.1592,3174.7854,3174.4915,3174.4783,3174.397,3154.114,3153.9407,3153.942,3134.9644,3134.943,3134.9297,3117.4434,3117.3604,3117.393,3117.5466,3101.4397,3101.442,3101.6997,3086.9893,3086.9832,3086.9539,3071.01,3071.1807,3071.4304,3071.1953,3054.952,3054.7432,3054.7458,3037.337,3037.2634,3037.0454
3162.1248,3162.8398,3164.3347,3142.5044,3143.1355,3142.604,3120.6748,3119.7473,3119.302,3119.4612,3099.387,3099.005,3100.5938,3082.8145,3083.6006,3083.6262,3066.5593,3067.1123,3066.8538,3066.8994,3050.908,3050.6902,3051.1921,3035.3545,3035.629,3036.8882,3023.3367,3027.0095,3029.852,3030.9827,3015.3232,3021.009,3020.9316,2985.0173,2984.03,2984.7058,nan,nan,nan,nan,nan,nan,nan,nan,nan,nan,nan,nan,nan,nan,nan,nan,nan,nan,nan,nan,nan,nan,nan,nan,nan,nan,nan,nan,nan,1196.2155,1178.9427,1179.1002,1177.069,1177.6398,1164.397,1164.7412,1166.8444,1156.369,1156.5852,1157.103,1151.6584,1152.4148,1153.0009,1153.3303,1149.561,1149.7291,1149.8467,1147.4216,1147.4312,1147.4664,1145.4856,1145.4728,1145.4895,1145.5588,1143.9563,1143.9617,1143.9652,1142.9065,1142.92,1142.9655,1141.8624,1141.8247,1141.75,1141.7222,1139.6464,1139.4485,1139.623,1138.0675,1138.1688,1138.299,1137.7448,1137.7588,1137.7776,1137.7023,1137.8687,1137.86,1137.9407,1138.8066,1138.6431,1138.5186,1139.5076,1139.531,1139.7783,1139.8943,1141.655,1141.7346,1141.578,1143.0544,1142.7993,1142.9354,1145.3696,1144.1377,1143.2946,1143.1134,1147.1141,1136.4407,1136.1818,nan,nan,nan,3020.8264,3020.8264,3020.8262,3020.8264,3090.7952,3086.75,3062.6172,3095.403,3096.5444,3078.0352,3076.7725,3081.0303,3079.6982,3073.5212,3048.717,3053.05,3040.7346,3038.374,3033.4678,3033.9805,3050.307,3047.892,3043.2952,3044.4053,3047.494,3047.805,3047.233,3036.6155,3037.9402,3039.2866,3025.6965,3026.2095,3026.679,3031.5557,3015.618,3005.2356,2933.4397,2861.3242,2860.9473,2861.6814,2854.0308,2856.288,2857.3552,2858.9534,2856.487,2855.5208,2854.572,2857.288,2867.76,2862.5894,2880.9507,2877.657,2876.5122,2880.941,2885.2795,2890.441,2888.104,3078.4585,3085.7073,3084.6814,3115.1445,3114.5024,3106.757,3100.9414,3124.388,3122.2395,3119.4487,3138.036,3133.896,3133.9712,3166.257,3153.3596,3161.8025,3265.3792,3334.817,3334.6504,3331.2512,3343.216,3341.632,3338.4321,3340.2708,3339.5833,3338.3984,3341.3303,3397.4363,3403.332,3397.0376,3435.3618,3430.9558,3433.8352,3457.59,3457.4697,3458.0608,3457.2021,3448.0059,3447.4097,3447.3413,3439.7847,3439.8206,3440.0217,3431.013,3431.0657,3431.3123,3431.5764,3418.7827,3419.055,3419.4038,3405.4204,3405.7546,3405.9395,3384.255,3384.2703,3383.7136,3382.964,3361.9175,3361.2856,3361.089,3339.3066,3339.0747,3339.2986,3322.879,3323.0452,3323.2104,3323.3042,3306.8774,3307.1833,3307.226,3292.3774,3292.5767,3292.519,3276.558,3276.429,3276.3677,3276.1138,3260.7205,3260.723,3260.7488,3245.2234,3245.8118,3245.651,3228.4,3228.56,3227.945,3227.967,3209.7913,3209.5671,3209.576,3190.4368,3190.6763,3190.7087,3172.6843,3172.5024,3172.24,3172.1316,3153.2307,3153.1072,3153.0203,3135.2234,3135.2012,3134.9983,3118.5134,3118.5225,3118.561,3118.6755,3103.0977,3103.295,3103.2642,3088.8547,3089.016,3089.1501,3073.0854,3073.1418,3073.277,3073.0059,3057.004,3056.8174,3056.8423,3039.9983,3039.9553,3040.1714
3163.4841,3164.0,3165.9548,3144.0693,3144.4827,3145.336,3123.1633,3122.4155,3121.9194,3122.3325,3101.5662,3102.9236,3102.4475,3083.4653,3083.2485,3083.4993,3066.1616,3065.9485,3065.5132,3065.0125,3048.3083,3047.9324,3048.2104,3033.6572,3033.9807,3034.7764,3020.1753,3024.8093,3027.7053,3028.5818,3013.5518,3020.9126,3020.8503,2984.8154,2984.4783,2984.2722,nan,nan,nan,nan,nan,nan,nan,nan,nan,nan,nan,nan,nan,nan,nan,nan,nan,nan,nan,nan,nan,nan,nan,nan,nan,nan,nan,nan,nan,1196.2155,1178.9521,1178.0345,1175.6172,1179.3798,1165.9119,1166.1406,1167.6659,1157.0692,1156.7426,1157.3527,1151.7096,1152.2797,1153.0619,1153.3228,1149.5267,1149.7561,1149.8635,1147.3973,1147.4418,1147.4559,1145.5011,1145.4869,1145.4763,1145.5248,1143.9391,1143.9675,1143.959,1142.9508,1142.9468,1142.969,1141.8624,1141.9358,1141.9044,1141.6185,1139.648,1139.619,1139.55,1137.9418,1138.1088,1138.188,1137.6654,1137.6589,1137.6946,1137.5908,1137.823,1137.8751,1137.9819,1138.907,1138.8688,1138.8391,1139.7837,1139.7587,1139.8123,1140.0859,1141.6637,1141.6854,1141.6206,1143.28,1142.8787,1142.9213,1145.3824,1144.1097,1143.2963,1143.3296,1150.2882,1137.1532,1136.2025,nan,nan,nan,3020.8264,3020.8264,3020.8267,3020.8264,3091.027,3087.7869,3070.9778,3080.5774,3088.3928,3077.0403,3065.5122,3077.456,3077.6602,3077.2842,3046.6074,3054.8892,3043.0852,3036.454,3029.4429,3032.777,3049.7273,3045.1738,3043.9902,3045.3728,3047.454,3047.6511,3047.1797,3035.0745,3037.2566,3039.146,3025.505,3024.4502,3026.1682,3031.3804,3014.4695,3012.6,2944.183,2860.6067,2860.2856,2861.301,2854.0374,2855.8442,2857.054,2858.913,2856.4875,2855.5967,2854.7185,2857.6204,2871.366,2862.637,2881.1711,2877.4219,2876.4502,2879.763,2885.808,2891.2896,2882.7786,3075.1577,3085.5068,3083.419,3114.9402,3114.4404,3107.781,3100.3013,3124.297,3121.9956,3119.7056,3138.1143,3133.9197,3134.06,3169.2422,3151.3335,3153.8555,3272.2788,3335.0962,3334.7227,3331.6816,3343.256,3341.7957,3339.0203,3340.9248,3341.3245,3338.4998,3339.931,3391.0603,3398.484,3399.055,3437.1306,3431.8257,3435.9177,3459.9583,3461.987,3461.424,3460.019,3448.4915,3448.1846,3447.875,3439.7522,3440.052,3440.2065,3431.0212,3431.2134,3431.3242,3431.4558,3418.9998,3419.2385,3419.6265,3405.593,3405.9924,3406.1716,3384.3755,3384.2485,3383.7456,3382.9175,3361.7634,3361.2551,3361.245,3339.4768,3339.1528,3339.3892,3322.9385,3323.07,3323.1948,3323.4414,3307.066,3307.168,3307.2551,3292.46,3292.3452,3292.4668,3276.6003,3276.3284,3276.258,3275.9922,3260.5674,3260.5925,3260.5215,3245.1267,3245.5063,3245.5269,3228.5176,3228.256,3227.97,3227.8528,3209.6938,3209.2769,3209.453,3190.37,3190.662,3190.6545,3172.8235,3172.685,3172.4717,3172.1367,3153.2192,3153.039,3153.1628,3135.3289,3135.2349,3135.078,3118.567,3118.4395,3118.5679,3118.5803,3103.1243,3103.2517,3103.1548,3088.8408,3089.0737,3089.1482,3073.277,3073.47,3073.0806,3072.8186,3056.628,3056.391,3056.7144,3040.054,3040.1294,3040.1526
3166.4656,3167.2202,3168.742,3148.0474,3148.4292,3148.248,3125.8816,3125.3662,3125.2275,3124.2966,3101.9697,3101.9675,3102.6626,3082.4495,3082.8247,3083.0193,3065.3909,3065.6387,3065.7302,3065.4978,3047.9631,3047.1982,3047.4006,3033.4194,3033.6914,3034.9202,3020.7476,3024.9373,3027.711,3028.6565,3013.8374,3020.8845,3020.8345,2984.7024,2984.5613,2984.489,nan,nan,nan,nan,nan,nan,nan,nan,nan,nan,nan,nan,nan,nan,nan,nan,nan,nan,nan,nan,nan,nan,nan,nan,nan,nan,nan,nan,1196.2155,1196.2155,1180.4913,1178.2875,1175.1306,1179.3439,1167.3292,1167.7589,1168.4984,1157.9277,1158.2734,1158.0874,1151.6818,1152.165,1152.6562,1153.0524,1149.5125,1149.7823,1149.86,1147.3914,1147.4497,1147.4512,1145.5249,1145.4938,1145.4836,1145.5331,1143.9141,1143.9248,1143.959,1142.9104,1142.9237,1142.9829,1141.8739,1141.9802,1141.8386,1141.5923,1139.6516,1139.5302,1139.3904,1137.8809,1138.0214,1138.1293,1137.5638,1137.5796,1137.6116,1137.5524,1137.8679,1137.9872,1138.029,1138.9381,1139.022,1139.0474,1140.0101,1140.0459,1140.061,1140.2247,1141.6813,1141.6798,1141.603,1143.3895,1142.9155,1142.8755,1145.3937,1144.0776,1143.2789,1143.308,1150.381,1149.8796,1137.3351,nan,nan,nan,3020.8264,3020.8264,3020.8264,3020.8267,3091.1516,3087.7266,3071.0417,3080.4773,3081.9424,3070.7913,3058.357,3070.188,3073.9985,3075.3018,3053.1726,3059.297,3051.1604,3033.0605,3021.1343,3030.7754,3045.652,3041.9375,3042.8167,3044.3955,3043.8225,3044.1296,3043.8835,3032.968,3036.168,3038.244,3022.333,3023.195,3023.9465,3029.6145,3015.253,3003.158,2972.5068,2859.5889,2859.818,2860.9114,2854.0466,2855.4514,2856.5793,2858.4363,2856.4585,2855.8882,2854.94,2858.0146,2870.1514,2862.7532,2882.4683,2877.2998,2876.3865,2878.063,2887.22,2892.7944,2876.341,3066.1118,3085.2646,3082.7585,3114.9019,3114.5688,3109.4016,3100.2664,3124.016,3122.2244,3120.0217,3138.2783,3133.8044,3134.2188,3170.4348,3149.868,3154.3425,3274.8345,3335.4348,3335.1804,3332.8352,3343.6868,3342.194,3339.776,3341.1677,3339.8057,3338.8606,3340.8591,3389.9954,3392.947,3395.6694,3431.3042,3436.7258,3436.8198,3463.674,3465.81,3464.8696,3462.2832,3449.401,3448.646,3448.083,3439.582,3439.9753,3440.3157,3431.0125,3431.1665,3431.4138,3431.5051,3419.0576,3419.4219,3419.7603,3405.694,3406.2024,3406.163,3384.5396,3384.2551,3383.7405,3382.7324,3362.1787,3361.155,3361.0613,3339.4165,3339.3306,3339.3337,3322.873,3323.09,3323.3447,3323.2776,3307.1426,3307.176,3307.2598,3292.459,3292.5117,3292.3765,3276.4521,3276.481,3276.4712,3276.0332,3260.6882,3260.3965,3260.577,3245.1643,3245.3613,3245.427,3228.411,3228.2195,3228.0312,3227.7751,3209.416,3209.0686,3209.4211,3190.3176,3190.5496,3190.5916,3172.6714,3172.6736,3172.5305,3172.2688,3153.3215,3153.3052,3153.2163,3135.2178,3135.3071,3135.1633,3118.4473,3118.512,3118.5227,3118.5024,3103.0042,3103.1057,3103.307,3089.037,3089.2197,3089.3,3073.265,3073.362,3072.9602,3072.6362,3056.5847,3056.439,3056.453,3040.0173,3040.0854,3040.2202
3166.2773,3166.0916,3167.28,3146.468,3146.9636,3147.1406,3125.0933,3124.811,3124.9795,3124.3606,3102.939,3103.1416,3103.2778,3082.8794,3083.4111,3083.2969,3065.7283,3066.0354,3066.17,3065.9346,3048.3865,3047.3125,3047.5078,3033.509,3033.86,3035.0076,3020.6804,3025.1985,3027.9397,3028.5115,3013.503,3020.8345,3020.7385,2983.3665,2983.3967,2984.489,nan,nan,nan,nan,nan,nan,nan,nan,nan,nan,nan,nan,nan,nan,nan,nan,nan,nan,nan,nan,nan,nan,nan,nan,nan,nan,nan,1196.2155,1196.2155,1196.2155,1183.3778,1181.113,1177.2599,1180.2358,1169.1571,1168.4952,1169.2725,1158.2883,1157.9337,1158.2109,1151.582,1151.8833,1152.3579,1153.1115,1149.5067,1149.7867,1149.906,1147.3978,1147.4192,1147.4354,1145.4978,1145.5002,1145.4865,1145.5066,1143.9219,1143.9338,1143.9285,1142.8943,1142.8866,1142.9327,1141.782,1141.8505,1141.8152,1141.6467,1139.8204,1139.4563,1139.4263,1137.9055,1137.8977,1137.9803,1137.4769,1137.4998,1137.5992,1137.6294,1138.05,1138.215,1138.2351,1139.0302,1139.1147,1139.1611,1140.1415,1140.0597,1140.0022,1140.0917,1141.4523,1141.5739,1141.4368,1143.1013,1142.519,1142.7339,1145.392,1144.196,1143.215,1143.2307,1149.8652,1148.9728,1139.2483,nan,nan,nan,3021.815,3022.6453,3022.5405,3023.7612,3091.0261,3087.1724,3073.262,3086.2686,3083.273,3073.0535,3064.3523,3062.752,3069.333,3065.7083,3051.818,3056.9172,3047.1895,3031.9866,3026.2327,3033.2954,3046.9683,3043.0127,3044.008,3044.3381,3042.135,3041.381,3040.2124,3032.4702,3036.309,3037.985,3020.0566,3021.383,3021.5076,3029.602,3008.9812,3005.525,2972.3445,2859.4211,2859.4648,2861.0364,2854.0535,2855.26,2856.501,2857.957,2856.4749,2856.1584,2855.3123,2858.675,2867.8977,2863.1272,2884.2964,2876.8313,2875.3003,2876.397,2891.481,2893.249,2874.7336,3060.2737,3084.2231,3081.9856,3115.1392,3114.8457,3110.2256,3100.111,3123.634,3122.5078,3120.1155,3138.6885,3134.1404,3134.1714,3169.7688,3151.4949,3151.542,3258.6824,3335.4985,3335.4482,3333.1492,3344.2402,3342.6455,3339.9734,3341.2107,3340.378,3339.6162,3341.4492,3384.8333,3388.3923,3396.6235,3430.6333,3432.3533,3430.3867,3461.1453,3463.675,3463.824,3461.9385,3449.1816,3448.6086,3448.0015,3439.1807,3439.4602,3439.981,3430.7134,3430.9214,3431.32,3431.405,3418.9329,3419.3916,3419.74,3405.5525,3406.1082,3406.1409,3384.5083,3384.2625,3383.4138,3382.8237,3362.1528,3360.9753,3360.8093,3339.5073,3339.445,3339.3875,3322.9258,3323.0842,3323.1902,3323.21,3307.1897,3307.1118,3307.1965,3292.3335,3292.2546,3292.3464,3276.4675,3276.4082,3276.3513,3276.091,3260.6555,3260.6204,3260.9106,3245.4016,3245.5232,3245.4048,3228.376,3228.1401,3227.9773,3227.8367,3209.5881,3209.517,3209.5864,3190.383,3190.575,3190.5657,3172.446,3172.42,3172.4058,3172.3867,3153.3245,3153.3413,3153.2493,3135.2412,3135.3347,3135.174,3118.4922,3118.5618,3118.5674,3118.5066,3103.0374,3103.1855,3103.3445,3089.072,3089.2327,3089.36,3073.2383,3073.3376,3073.0042,3072.8765,3056.3284,3056.477,3056.51,3039.9358,3039.793,3040.266
3164.8262,3164.4175,3165.2588,3142.6543,3143.2642,3143.6345,3122.0312,3122.1758,3122.3005,3121.9314,3103.3066,3103.162,3103.3545,3085.97,3086.1355,3086.2463,3069.0413,3068.97,3069.9375,3069.3584,3052.6968,3052.346,3052.9338,3037.4163,3038.2754,3038.8052,3026.9692,3030.1804,3032.3772,3032.5273,3017.4807,3021.122,3021.066,2992.691,2992.691,2992.691,nan,nan,nan,nan,nan,nan,nan,nan,nan,nan,nan,nan,nan,nan,nan,nan,nan,nan,nan,nan,nan,nan,nan,nan,nan,nan,nan,1195.0122,1194.9993,1198.4647,1185.9586,1183.8757,1186.418,1187.176,1171.8511,1171.2205,1171.3798,1159.6532,1159.4834,1160.049,1152.9631,1153.3063,1153.7954,1154.6925,1150.679,1151.0748,1151.1658,1148.3937,1148.4,1148.418,1146.4446,1146.4736,1146.4866,1146.4718,1144.8533,1144.8684,1144.8485,1143.7911,1143.8395,1143.9039,1142.9868,1142.8578,1142.7991,1142.7411,1141.1501,1140.9668,1140.8748,1139.4468,1139.2551,1139.1964,1138.957,1138.9781,1139.167,1139.3748,1139.8412,1140.0269,1140.0765,1140.439,1140.5127,1140.52,1141.4623,1141.392,1141.2739,1141.2195,1142.422,1142.4318,1142.2932,1144.2076,1143.4662,1143.3673,1145.8198,1144.7477,1143.5881,1143.6063,1151.1028,1150.5326,1149.8245,nan,nan,nan,3019.885,3019.867,3018.9734,3019.369,3090.4214,3087.1997,3070.6357,3070.7742,3077.2424,3067.7979,3055.1567,3058.0972,3056.3435,3052.4705,3041.4072,3042.704,3040.7097,3038.2603,3036.45,3040.542,3050.5146,3047.4272,3049.4626,3050.5771,3050.0232,3048.6775,3048.1885,3038.765,3040.316,3042.1772,3030.2551,3031.6687,3031.6243,3035.163,3019.0557,3019.3906,3006.99,2855.5747,2855.319,2856.482,2851.7644,2852.6619,2853.4475,2853.928,2854.292,2853.893,2852.9697,2855.6128,2862.7593,2857.074,2861.984,2867.0103,2865.0112,2864.8777,2884.5261,2883.5847,2859.4226,3044.7283,3080.0454,3077.315,3111.7417,3111.2114,3107.0874,3096.5327,3120.121,3119.5315,3118.1184,3134.7163,3130.672,3129.0977,3162.4456,3145.4868,3148.4998,3236.3684,3332.708,3333.8738,3330.986,3345.8882,3344.81,3341.494,3343.7222,3343.5693,3343.4312,3343.9792,3338.292,3342.4978,3349.2048,3375.109,3367.5017,3367.2083,3410.1619,3411.8643,3411.999,3415.3513,3438.8623,3440.965,3442.1458,3437.0422,3436.5857,3435.4055,3428.4824,3427.9487,3427.7273,3427.3997,3413.7908,3413.9795,3414.1023,3399.4539,3400.0557,3399.7163,3376.4082,3376.0986,3375.4468,3374.4775,3351.4968,3350.9382,3350.5635,3329.7168,3329.8662,3329.8608,3314.0115,3314.1482,3314.1765,3314.1821,3297.3286,3297.401,3297.481,3282.098,3282.2085,3282.2551,3267.0815,3267.131,3266.84,3266.6694,3252.4265,3252.493,3252.5012,3237.8647,3237.9988,3237.9573,3221.526,3221.3547,3221.266,3221.0298,3204.3474,3204.1956,3204.318,3186.326,3186.4775,3186.3228,3169.1775,3169.163,3169.0583,3168.9182,3151.7341,3151.7717,3151.5955,3135.5679,3135.5579,3135.4858,3120.1577,3120.268,3120.273,3120.3508,3105.7795,3105.935,3106.0825,3092.4265,3092.6338,3092.7249,3076.8499,3076.8948,3076.7917,3076.495,3060.5156,3060.253,3060.3306,3044.2307,3044.2578,3044.3909
3165.0183,3164.9412,3165.3416,3142.8293,3143.1238,3143.6501,3122.1184,3121.7666,3121.8079,3122.0264,3103.4072,3103.513,3103.2961,3085.6284,3085.8127,3085.9285,3068.5952,3068.6277,3069.1768,3068.3044,3051.651,3051.4414,3052.267,3037.3628,3038.0757,3039.252,3026.7913,3030.2397,3032.3494,3032.8398,3017.814,3021.103,3020.9844,2992.6907,2992.691,2992.691,nan,nan,nan,nan,nan,nan,nan,nan,nan,nan,nan,nan,nan,nan,nan,nan,nan,nan,nan,nan,nan,nan,nan,nan,nan,nan,nan,1195.0403,1194.918,1197.9932,1185.8696,1184.7579,1187.5638,1189.2079,1172.6715,1171.499,1171.4868,1159.4634,1158.9047,1159.6913,1152.983,1153.25,1153.6492,1154.3597,1150.4567,1150.9318,1151.1891,1148.4222,1148.4429,1148.4202,1146.4498,1146.451,1146.4922,1146.4717,1144.8202,1144.8158,1144.7861,1143.7518,1143.797,1143.8657,1142.8567,1142.7759,1142.8242,1142.8514,1141.1896,1141.0348,1140.8624,1139.1655,1138.963,1138.9309,1138.7885,1138.885,1139.1056,1139.4268,1139.945,1140.0554,1140.0591,1140.4026,1140.4628,1140.4714,1141.4475,1141.3971,1141.3339,1141.2838,1142.4598,1142.4624,1142.3317,1144.3097,1143.4612,1143.2521,1145.3599,1144.2926,1143.4603,1143.4608,1150.4855,1150.5319,1150.6345,nan,nan,nan,3019.8962,3019.726,3019.5974,3019.0176,3089.8398,3086.9702,3069.2163,3076.5742,3077.021,3065.093,3043.8325,3050.0051,3054.6367,3056.8098,3040.4126,3047.3198,3046.83,3042.3406,3040.612,3041.5955,3050.6514,3047.5098,3049.1624,3048.577,3049.0254,3048.082,3047.6616,3037.622,3038.7168,3040.7217,3027.1838,3027.4756,3028.1565,3032.8154,3016.9421,3027.0786,3008.1,2855.5513,2855.389,2856.5825,2851.7842,2852.362,2853.1125,2853.7397,2854.3645,2854.0579,2853.2954,2855.3447,2861.87,2856.7046,2858.863,2866.0918,2864.4478,2864.2485,2884.1858,2883.9746,2863.4482,3035.6028,3079.995,3075.8171,3111.661,3111.0015,3107.4302,3097.136,3120.1372,3119.6538,3117.9282,3134.4714,3130.5852,3129.26,3163.256,3148.346,3145.4102,3228.0225,3332.3083,3333.8018,3331.5698,3345.7698,3344.8564,3341.7185,3342.395,3343.8467,3343.6157,3343.8057,3338.2388,3341.9517,3345.8726,3375.404,3368.2332,3367.185,3406.8735,3411.3303,3412.5203,3411.7144,3437.1968,3442.0063,3441.6238,3436.3718,3437.0532,3436.2153,3428.7007,3428.7515,3427.9385,3428.1064,3414.2488,3414.3513,3414.633,3399.758,3400.3787,3399.9893,3376.3806,3375.8682,3375.2805,3374.3809,3351.3484,3350.498,3350.3599,3329.8296,3329.8845,3329.9968,3314.132,3314.1934,3314.2053,3314.2312,3297.31,3297.2869,3297.2476,3282.0024,3282.1343,3282.053,3266.8953,3266.864,3266.6658,3266.6292,3252.5193,3252.5764,3252.5503,3237.879,3237.8408,3237.8599,3221.428,3221.3997,3221.1628,3221.0059,3204.4114,3204.297,3204.3499,3186.4753,3186.466,3186.4177,3169.0393,3168.7737,3168.7412,3168.8054,3151.6838,3151.651,3151.6753,3135.4849,3135.4336,3135.3472,3120.3584,3120.2693,3120.3982,3120.5134,3105.9075,3105.8965,3106.1365,3092.509,3092.489,3092.5593,3076.9092,3076.9272,3077.091,3076.6677,3060.6187,3060.4773,3060.2842,3043.85,3044.216,3044.2856
3165.8386,3164.6584,3165.4114,3143.3855,3143.4417,3142.784,3122.1501,3122.185,3121.9346,3120.7014,3102.9207,3103.1133,3102.892,3084.838,3084.4077,3084.196,3066.4897,3067.1895,3066.9714,3066.4463,3050.9944,3050.6145,3051.1343,3036.6438,3038.3748,3039.9883,3027.4792,3031.8757,3034.415,3035.5767,3013.812,3020.9075,3020.9014,2992.6907,2992.6907,2992.691,nan,nan,nan,nan,nan,nan,nan,nan,nan,nan,nan,nan,nan,nan,nan,nan,nan,nan,nan,nan,nan,nan,nan,nan,nan,nan,nan,1195.098,1195.0242,1197.4951,1185.2645,1185.9054,1188.2396,1189.5883,1173.868,1171.7018,1171.0243,1159.2244,1158.5269,1159.0927,1152.8938,1153.2509,1153.9662,1154.1965,1150.397,1150.905,1151.1586,1148.4728,1148.5063,1148.4486,1146.4241,1146.4258,1146.4573,1146.4736,1144.8138,1144.7799,1144.7881,1143.7369,1143.7402,1143.7694,1142.7886,1142.7776,1142.8134,1142.8486,1141.296,1141.2656,1140.9572,1139.2157,1138.9363,1138.8201,1138.6742,1138.8547,1139.288,1139.7905,1140.2079,1140.2096,1140.2098,1140.4702,1140.453,1140.4843,1141.4612,1141.4359,1141.4081,1141.3934,1142.5704,1142.502,1142.361,1144.3502,1143.4874,1143.2533,1145.502,1144.3259,1143.4996,1143.4926,1150.48,1150.5452,1151.1166,nan,nan,nan,3018.7607,3018.9067,3019.1255,3018.142,3088.335,3084.8591,3063.5303,3088.0994,3088.7104,3068.245,3031.5706,3032.75,3044.128,3045.8743,3031.7715,3031.7737,3049.7817,3046.448,3045.289,3043.6392,3051.388,3047.7698,3048.7441,3047.6094,3048.6453,3048.851,3048.2234,3037.763,3038.7104,3039.671,3025.705,3026.1057,3026.573,3031.6792,3014.316,3036.3186,3010.8567,2855.1006,2855.3735,2856.3594,2851.6804,2852.2358,2853.0847,2853.279,2854.3347,2854.234,2853.4358,2855.2148,2861.2554,2856.7832,2859.253,2866.5972,2864.3354,2864.0088,2882.3743,2883.8696,2864.8945,3031.7107,3080.157,3076.1274,3111.662,3111.1296,3107.7026,3097.009,3120.1897,3119.591,3117.3237,3134.1113,3129.9978,3129.9973,3164.9507,3150.284,3143.0105,3212.467,3332.8315,3333.7004,3332.143,3345.7734,3344.7654,3341.906,3342.0151,3343.6555,3343.715,3344.1067,3340.374,3341.182,3340.906,3373.2227,3377.0889,3372.8547,3407.1619,3409.8894,3414.371,3407.842,3435.5413,3438.6697,3437.3958,3435.7463,3435.9526,3435.9185,3428.9749,3428.7146,3428.775,3428.3953,3414.8215,3414.6516,3414.9128,3400.082,3400.3733,3400.0034,3376.1885,3375.5444,3374.8481,3373.9006,3351.1462,3350.3855,3350.3567,3330.073,3330.1282,3330.0984,3313.9802,3314.0303,3314.2747,3314.1191,3297.255,3297.4482,3297.2944,3281.708,3282.0046,3281.8804,3266.7021,3266.6672,3266.6904,3266.7505,3252.5322,3252.69,3252.8352,3237.9055,3237.855,3237.8997,3221.2004,3221.1953,3221.0864,3221.0793,3204.4885,3204.4453,3204.4053,3186.4421,3186.4155,3186.326,3169.155,3168.9053,3168.7275,3168.7854,3151.6387,3151.6013,3151.581,3135.4849,3135.5269,3135.4822,3120.3757,3120.384,3120.4302,3120.4146,3105.9226,3105.938,3106.2441,3092.4604,3092.6995,3092.753,3076.866,3076.9058,3077.1099,3076.8765,3060.7712,3060.526,3060.5625,3044.1067,3044.1526,3044.2505
3164.0823,3164.2568,3165.1816,3142.3062,3142.9817,3143.8867,3122.201,3122.2378,3122.4502,3122.0754,3103.9514,3103.6843,3103.9084,3087.0916,3086.388,3085.6667,3070.574,3070.375,3071.2383,3072.2751,3057.7158,3059.5376,3060.1672,3042.1282,3044.245,3045.0254,3028.2747,3030.6484,3037.4893,3037.5952,3021.3384,3020.6626,3020.802,2992.691,2992.691,2992.691,nan,nan,nan,nan,nan,nan,nan,nan,nan,nan,nan,nan,nan,nan,nan,nan,nan,nan,nan,nan,nan,nan,nan,nan,nan,nan,1204.6729,1195.2769,1195.2435,1197.0911,1185.4397,1185.9272,1186.8859,1188.8004,1173.2114,1171.9967,1171.1516,1159.1072,1158.2916,1158.8258,1152.7689,1153.1493,1153.8917,1154.3182,1150.3313,1150.7023,1151.0593,1148.5026,1148.5353,1148.475,1146.4464,1146.4403,1146.4825,1146.4738,1144.7795,1144.7745,1144.8033,1143.7694,1143.7555,1143.7535,1142.7408,1142.807,1142.8253,1142.7031,1141.1317,1141.1428,1140.7551,1139.026,1138.8873,1138.8616,1138.6233,1138.7974,1139.4098,1139.9559,1140.3268,1140.2928,1140.1901,1140.4006,1140.3702,1140.3793,1141.3912,1141.4233,1141.41,1141.3256,1142.4852,1142.4072,1142.3094,1144.3275,1143.4608,1143.2625,1145.437,1144.2903,1143.5166,1143.5194,1150.7012,1150.7183,1151.3905,nan,nan,nan,3017.522,3017.0295,3017.6514,3018.0032,3089.8271,3086.2727,3070.1667,3072.7095,3075.1853,3073.552,3048.2083,3054.1177,3061.9897,3053.721,3031.9338,3029.8586,3039.9087,3046.429,3046.965,3044.9387,3051.2878,3048.6975,3049.4333,3048.9617,3049.5085,3049.8594,3049.736,3040.5442,3040.6943,3041.0273,3028.7554,3031.0254,3033.2134,3037.9312,3019.355,3032.114,3013.1155,2854.1475,2855.1355,2856.3757,2851.6628,2852.0286,2852.9949,2853.132,2854.52,2854.4841,2853.7917,2855.2742,2859.672,2857.929,2862.4294,2866.4236,2863.6243,2863.394,2880.3442,2882.793,2868.6392,3030.0098,3080.5925,3075.9294,3111.79,3111.5283,3108.8687,3097.3623,3120.2695,3119.5132,3117.4595,3133.6938,3129.3662,3130.3523,3166.657,3152.1248,3142.3313,3197.002,3331.196,3333.606,3332.14,3345.8447,3344.81,3342.1558,3341.712,3343.1982,3343.777,3343.3357,3338.491,3338.4863,3342.5752,3372.4204,3374.9473,3373.0283,3405.7563,3404.8245,3408.1248,3410.331,3433.8826,3434.9539,3435.36,3434.955,3435.3032,3436.4285,3428.8213,3429.057,3429.0762,3428.7231,3415.0793,3415.4226,3415.3,3400.0674,3400.276,3399.7644,3375.7456,3375.031,3374.181,3373.5068,3350.9612,3350.2039,3350.386,3330.009,3330.0713,3329.929,3313.9238,3313.9902,3314.0386,3313.9944,3297.2354,3297.188,3297.0767,3281.9053,3281.917,3281.9727,3266.8066,3266.6948,3266.7227,3266.9321,3252.6208,3252.777,3252.799,3237.9573,3238.1052,3237.9873,3221.412,3221.3196,3221.2756,3221.171,3204.5693,3204.574,3204.5508,3186.4758,3186.4658,3186.3743,3169.0767,3168.8735,3168.7024,3168.7285,3151.6057,3151.5383,3151.536,3135.593,3135.6714,3135.708,3120.488,3120.4158,3120.438,3120.403,3105.814,3105.9097,3106.126,3092.4712,3092.7,3092.896,3077.1086,3077.064,3077.0256,3076.7961,3060.6821,3060.4688,3060.7036,3044.432,3044.2822,3044.469
3138.2878,3138.5671,3134.6914,3106.8376,3104.935,3100.6265,3094.0413,3093.2024,3092.8745,3092.77,3102.953,3102.8474,3101.9702,3114.3203,3116.0825,3116.477,3116.334,3115.3838,3115.835,3117.3083,3108.9119,3110.6265,3112.4507,3103.991,3104.9375,3106.4763,3097.612,3097.612,3097.612,3097.612,nan,3021.3564,3021.3564,nan,nan,nan,nan,nan,nan,nan,nan,nan,nan,nan,nan,nan,nan,nan,nan,nan,nan,nan,nan,nan,nan,nan,nan,nan,nan,nan,nan,1202.019,1202.2657,1193.6775,1193.5767,1195.9811,1185.8354,1185.5123,1185.7712,1186.9868,1174.3655,1174.1252,1173.0194,1161.2172,1161.0215,1161.4979,1154.3615,1154.5249,1155.3383,1155.7007,1151.9526,1152.3723,1152.6874,1149.8384,1149.892,1149.8357,1147.6923,1147.6968,1147.7789,1147.6736,1145.8799,1145.9562,1145.8889,1144.9958,1145.024,1145.0055,1144.2263,1144.2745,1144.2805,1144.149,1142.6,1142.5782,1142.26,1141.0768,1140.965,1140.928,1140.6666,1141.1113,1141.5825,1141.7589,1141.6254,1141.5865,1141.5723,1141.7305,1141.7472,1141.7305,1142.5355,1142.5101,1142.4567,1142.395,1143.246,1143.2422,1143.1836,1144.8344,1143.9583,1143.8123,1145.8602,1144.678,1143.7845,1143.8176,1151.683,1151.6831,1151.683,nan,nan,nan,3033.0881,3033.0881,3027.516,3019.208,3085.655,3082.3857,3065.931,3058.7788,3065.229,3054.8145,3045.6533,3047.8513,3052.4514,3044.0613,3031.6157,3030.4536,3034.4172,3051.7283,3054.7778,3053.8926,3056.2617,3055.6309,3056.723,3056.688,3055.2246,3055.714,3055.975,3051.4854,3051.5388,3051.3813,3044.9338,3045.903,3045.6948,3049.9756,3036.1738,3020.4814,3015.0547,2848.766,2850.6755,2850.687,2849.237,2849.316,2849.5183,2849.1003,2852.6028,2852.3083,2851.7764,2851.4597,2855.1663,2854.9912,2835.0947,2854.9417,2853.5864,2853.889,2872.656,2871.076,2856.2974,3014.3484,3076.154,3070.401,3109.1897,3109.0437,3107.6023,3093.5579,3116.5872,3115.8152,3114.0803,3128.8462,3124.4912,3126.0503,3160.8167,3148.0684,3135.474,3192.281,3329.304,3332.6455,3330.5405,3349.4263,3347.4382,3344.0312,3348.0232,3348.8923,3348.891,3348.2576,3340.9717,3340.533,3338.7983,3333.7297,3332.863,3333.0508,3356.0854,3356.2986,3356.7976,3360.2893,3384.831,3386.3052,3385.6003,3406.691,3407.5354,3410.1562,3412.34,3411.3538,3411.57,3411.108,3400.7273,3400.3486,3399.4377,3384.303,3383.9983,3382.7449,3357.8196,3356.8208,3355.8032,3354.6616,3330.3665,3329.6304,3329.7593,3312.607,3312.6628,3312.6047,3299.7832,3299.7024,3299.6714,3299.5588,3285.8132,3285.7578,3285.748,3271.1355,3271.1553,3271.1501,3256.3066,3256.187,3256.3071,3256.288,3243.1296,3243.1985,3242.9949,3229.0032,3229.494,3229.3538,3214.2622,3214.1162,3214.11,3214.1272,3197.975,3197.9949,3197.8726,3181.0566,3180.9897,3180.9475,3164.7332,3164.5452,3164.546,3164.614,3149.7637,3149.8813,3149.8157,3135.498,3135.5964,3135.6272,3121.5393,3121.4927,3121.5408,3121.4795,3107.903,3107.8833,3108.144,3095.187,3095.3994,3095.3572,3080.3877,3080.1843,3080.1958,3080.0854,3064.7676,3064.478,3064.53,3049.2246,3049.0725,3049.1062
3112.781,3112.826,3111.431,3095.5217,3096.5493,3096.377,3093.5222,3093.879,3094.405,3094.9172,3103.2993,3106.4329,3110.6948,3118.54,3117.2617,3119.4583,3118.8477,3120.105,3122.6606,3123.564,3115.0554,3116.8413,3117.1548,3106.8833,3108.1946,3108.6597,3097.612,3097.612,3097.612,3097.612,nan,3021.3564,3021.3564,nan,nan,nan,nan,nan,nan,nan,nan,nan,nan,nan,nan,nan,nan,nan,nan,nan,nan,nan,nan,nan,nan,nan,nan,nan,nan,nan,nan,1202.0042,1202.2878,1193.7439,1193.6959,1196.1104,1185.7429,1185.3147,1185.419,1186.82,1174.839,1174.5898,1173.7847,1161.9332,1161.2222,1161.1849,1154.0214,1154.237,1154.7804,1155.3542,1151.8586,1152.1476,1152.4556,1149.6512,1149.8771,1149.9048,1147.7568,1147.75,1147.7792,1147.7074,1145.9287,1145.9427,1145.9535,1145.0186,1145.0504,1145.0394,1144.306,1144.2639,1144.1743,1144.2535,1142.712,1142.7694,1142.5936,1141.3162,1141.0767,1141.0984,1140.9075,1141.4346,1141.6113,1141.7091,1141.5393,1141.5076,1141.437,1141.6016,1141.6102,1141.6056,1142.3802,1142.368,1142.3223,1142.2909,1143.1826,1143.1561,1143.0625,1144.8478,1143.9786,1143.7943,1146.0939,1144.7231,1143.7709,1143.8026,1151.683,1151.683,1151.683,nan,nan,nan,3030.2563,3033.0813,3027.7102,3013.531,3084.5103,3082.6562,3065.9646,3054.6597,3060.2966,3057.5925,3041.6917,3047.8809,3050.6348,3046.1318,3037.6182,3032.3955,3041.261,3049.6982,3048.829,3050.6772,3054.4626,3054.6873,3056.772,3056.8667,3055.7703,3055.8174,3056.2346,3051.9617,3052.4705,3053.37,3044.1692,3046.647,3047.5173,3049.2253,3036.812,3020.1584,3015.0427,2848.3228,2850.7332,2850.3345,2849.1753,2849.2417,2849.4385,2849.5205,2852.718,2852.4612,2852.0994,2852.1147,2854.8828,2855.0305,2831.66,2846.7007,2853.2156,2853.8704,2874.0554,2872.4082,2861.9924,3013.1619,3074.4792,3072.1008,3109.309,3109.2896,3108.043,3094.2507,3116.75,3116.2808,3114.5393,3130.2146,3126.0442,3125.9553,3161.6104,3149.884,3137.4033,3168.455,3329.4026,3332.8396,3331.3918,3349.5654,3348.0864,3345.1587,3347.9082,3348.9988,3348.723,3348.3147,3342.007,3340.5984,3338.644,3333.8965,3333.5208,3335.305,3355.1384,3355.1487,3351.3545,3354.6702,3380.898,3380.2476,3382.637,3401.4407,3402.8933,3406.2188,3408.857,3411.01,3409.8054,3410.6555,3401.2114,3401.8516,3401.2444,3384.2947,3383.994,3382.6213,3357.816,3356.5962,3355.475,3354.5447,3330.161,3329.4097,3329.361,3312.725,3312.7515,3312.5107,3299.8008,3299.7869,3299.6213,3299.603,3285.903,3285.6624,3285.6028,3271.108,3271.0527,3271.02,3256.181,3256.2256,3256.3499,3256.432,3243.357,3243.2683,3243.067,3229.062,3229.3223,3229.238,3214.1265,3214.1528,3214.0051,3214.0852,3198.0989,3197.9497,3197.862,3180.873,3180.7405,3180.6868,3164.6865,3164.5059,3164.4316,3164.5176,3149.799,3149.8118,3149.9067,3135.5493,3135.6013,3135.6128,3121.4563,3121.5027,3121.5137,3121.5686,3107.889,3108.0312,3108.0327,3095.1885,3095.38,3095.341,3080.3025,3080.2483,3080.482,3080.3362,3064.7534,3064.4907,3064.3628,3049.1401,3048.9688,3049.1716
3130.3284,3140.7397,3141.0454,3127.2385,3126.4824,3126.656,3120.0557,3120.4595,3120.9714,3121.6384,3124.905,3125.7915,3126.514,3127.479,3128.0962,3128.396,3124.649,3126.1296,3127.4895,3128.607,3117.0378,3118.9514,3118.9604,3107.635,3109.1653,3109.642,3097.6118,3097.612,3097.612,3097.612,nan,3021.3564,3021.3564,nan,nan,nan,nan,nan,nan,nan,nan,nan,nan,nan,nan,nan,nan,nan,nan,nan,nan,nan,nan,nan,nan,nan,nan,nan,nan,nan,1200.5017,1201.1027,1202.0945,1194.4236,1194.5563,1196.402,1186.1218,1185.4672,1185.9817,1186.793,1174.4104,1174.0828,1174.3169,1162.3846,1161.559,1161.7655,1154.0356,1153.8495,1154.2455,1154.9177,1151.5908,1152.0095,1152.298,1149.5294,1149.7344,1149.8757,1147.8113,1147.8625,1147.8716,1147.8716,1146.0653,1146.0107,1145.9653,1145.0337,1145.094,1145.0916,1144.3853,1144.2881,1144.3268,1144.4071,1142.9877,1142.9418,1143.0431,1141.6443,1141.5156,1141.7175,1141.2478,1141.5739,1141.6659,1141.5908,1141.5651,1141.487,1141.3975,1141.4948,1141.5188,1141.45,1142.2875,1142.2996,1142.2975,1142.2207,1143.1395,1143.0835,1142.9803,1144.7782,1143.9802,1143.7717,1146.5461,1144.5586,1143.773,1143.7974,1151.683,1151.683,1151.683,nan,nan,nan,3021.0364,3034.3816,3025.3472,3011.768,3083.3838,3079.5542,3063.3196,3054.1216,3057.0989,3055.782,3038.7273,3043.5398,3049.1926,3051.727,3039.3052,3041.4343,3041.0815,3051.3425,3049.6003,3047.7441,3053.5688,3054.754,3056.585,3056.9377,3057.6096,3057.36,3057.1917,3053.0942,3053.5383,3053.9797,3044.7766,3047.3943,3049.4785,3050.7888,3039.45,3018.2021,3015.1235,2848.5618,2850.4177,2850.305,2849.235,2849.1692,2849.6897,2849.6753,2852.7505,2852.4524,2852.1438,2852.301,2854.5427,2855.8071,2833.7234,2844.794,2853.3086,2853.9026,2872.5374,2873.672,2864.4648,3010.3916,3072.9106,3071.9072,3109.3467,3109.5188,3108.3315,3094.1062,3116.7415,3116.2734,3114.9392,3131.16,3126.8247,3125.6448,3159.7478,3148.832,3139.294,3163.8376,3328.823,3333.1514,3331.3171,3349.5977,3348.534,3345.658,3347.201,3348.5095,3348.8752,3348.5815,3342.7488,3340.7783,3339.9597,3330.6875,3339.3713,3336.7605,3355.2283,3353.4194,3351.5376,3354.6396,3379.6318,3380.5142,3382.3,3398.1995,3399.5623,3404.2847,3406.8037,3407.8435,3408.136,3409.1995,3400.0244,3401.792,3401.2227,3384.029,3383.0942,3381.9902,3356.9385,3355.8628,3354.6255,3353.7153,3329.7615,3329.0896,3329.0576,3312.193,3312.379,3312.2817,3299.3804,3299.5835,3299.5132,3299.408,3285.7349,3285.7236,3285.6123,3271.2646,3271.1768,3271.2383,3256.114,3256.1633,3256.3206,3256.378,3243.3447,3243.3591,3243.3477,3229.2466,3229.4155,3229.3718,3214.116,3214.1785,3214.0889,3214.147,3198.0542,3198.0605,3197.8193,3180.8267,3180.859,3180.7913,3164.6516,3164.4917,3164.4192,3164.3796,3149.8223,3149.9375,3149.9285,3135.56,3135.6553,3135.4573,3121.2769,3121.3518,3121.529,3121.484,3107.9495,3107.9592,3108.0894,3095.073,3095.2583,3095.3066,3080.4524,3080.4,3080.4517,3080.3982,3064.7808,3064.552,3064.2292,3049.1824,3049.0972,3048.9485
3136.1562,3144.3835,3145.2805,3131.055,3131.411,3131.4573,3123.9753,3124.0664,3124.3281,3124.55,3127.5322,3127.6887,3127.9023,3128.3914,3128.473,3128.5107,3125.8171,3127.3318,3128.2388,3129.296,3117.5032,3118.7373,3119.1875,3107.9731,3109.1875,3109.55,3097.612,3097.612,3097.612,3097.612,nan,3021.3564,3021.3564,nan,nan,nan,nan,nan,nan,nan,nan,nan,nan,nan,nan,nan,nan,nan,nan,nan,nan,nan,nan,nan,nan,nan,nan,nan,nan,nan,1200.4244,1200.7366,1201.7627,1195.1367,1195.2926,1196.4779,1186.0337,1185.87,1186.495,1186.7546,1172.4272,1174.1519,1174.6338,1162.9298,1162.779,1163.6648,1154.8652,1154.1508,1153.98,1154.6797,1151.2731,1151.7695,1152.1495,1149.4662,1149.5983,1149.7018,1147.8368,1147.9126,1147.9095,1147.884,1146.0963,1146.0831,1146.0173,1145.0479,1145.0813,1145.1145,1144.467,1144.4827,1144.488,1144.5422,1143.1079,1142.9496,1143.015,1142.1417,1142.1504,1142.325,1141.6385,1141.6654,1141.6355,1141.543,1141.4628,1141.3956,1141.3335,1141.5724,1141.575,1141.5577,1142.3895,1142.3818,1142.2808,1142.2213,1143.1268,1143.1105,1143.0447,1144.8497,1143.9205,1143.7809,1145.9149,1144.6896,1143.7821,1143.8013,1151.683,1151.6829,1151.683,nan,nan,nan,3021.69,3035.813,3020.6174,3011.5933,3082.115,3079.4045,3055.3992,3056.08,3057.8228,3055.9287,3037.726,3038.6982,3044.017,3046.8909,3039.0142,3039.1228,3043.1711,3054.411,3055.1724,3053.6558,3055.5571,3055.2915,3056.2266,3056.7534,3058.0237,3058.258,3058.244,3054.098,3054.482,3054.5063,3045.614,3048.5073,3050.7327,3051.0554,3038.7822,3028.033,3015.183,2848.1736,2849.6396,2849.8274,2849.1726,2849.1523,2849.7559,2849.585,2852.7776,2852.45,2852.2288,2852.2195,2854.4348,2856.5046,2835.5876,2839.0286,2853.4114,2853.8794,2871.844,2875.2622,2866.45,3008.6118,3072.301,3071.63,3109.601,3109.6628,3108.5137,3094.319,3116.9783,3116.5015,3115.11,3131.506,3127.0466,3125.7295,3159.4092,3151.7532,3137.7632,3148.1692,3329.428,3333.1858,3331.2388,3349.7354,3348.7756,3345.7454,3346.3796,3348.1318,3348.6929,3348.504,3343.9368,3342.224,3340.6606,3331.6592,3338.7812,3337.0962,3354.7798,3352.77,3350.9236,3356.5613,3381.4187,3383.1392,3381.6567,3398.3875,3399.7485,3402.5903,3404.5718,3406.532,3407.6733,3405.8674,3400.0754,3400.7917,3400.659,3384.1,3382.6223,3380.9883,3355.8113,3354.6892,3353.8157,3353.1147,3328.864,3328.2444,3328.6672,3311.9795,3311.9949,3311.9924,3299.2026,3299.1738,3299.1765,3299.3323,3285.5142,3285.6475,3285.665,3271.0764,3271.137,3271.3674,3256.2822,3256.314,3256.3125,3256.4595,3243.4912,3243.4536,3243.2935,3229.3506,3229.5103,3229.3616,3214.065,3214.1326,3214.1438,3214.0212,3198.1272,3197.9492,3197.6765,3180.8704,3180.7957,3180.555,3164.598,3164.4463,3164.3945,3164.4731,3149.8025,3149.962,3150.1023,3135.6008,3135.6196,3135.6416,3121.4138,3121.3433,3121.4402,3121.5344,3107.9502,3107.9453,3108.0012,3095.062,3095.1577,3095.2712,3080.3948,3080.4084,3080.4526,3080.313,3065.1182,3064.7979,3064.4746,3049.0852,3049.0066,3048.9692
3169.934,3175.2024,3176.0198,3165.662,3166.0076,3166.0303,3157.4292,3157.2842,3157.304,3157.3274,3153.3352,3153.346,3153.4421,3143.4243,3143.6294,3144.6257,3134.1616,3136.8643,3138.4597,3140.3633,3121.7576,3124.042,3124.121,3109.8262,3109.8267,3109.8264,nan,nan,nan,nan,nan,nan,nan,nan,nan,nan,nan,nan,nan,nan,nan,nan,nan,nan,nan,nan,nan,nan,nan,nan,nan,nan,nan,nan,nan,nan,nan,nan,nan,1208.9133,1200.4968,1201.0223,1202.7213,1195.0106,1194.9995,1196.1907,1185.8867,1186.0065,1187.408,1187.2126,1173.5348,1174.7577,1175.3297,1165.0807,1165.9811,1166.8218,1158.1078,1157.5331,1157.2561,1157.3906,1153.1985,1153.7715,1154.1404,1151.041,1151.2034,1151.3026,1149.096,1149.2494,1149.3049,1149.3566,1147.5222,1147.502,1147.4312,1146.7446,1146.7716,1146.8229,1146.4797,1146.4688,1146.4343,1146.3129,1145.5071,1145.3035,1145.4335,1144.7042,1144.717,1144.8549,1143.4592,1143.5372,1143.5062,1143.4569,1142.7036,1142.736,1142.7864,1142.6097,1142.5935,1142.608,1143.2665,1143.2507,1143.1887,1143.131,1143.7627,1143.7582,1143.7467,1145.0946,1144.3407,1144.1932,1145.9332,1144.8268,1143.8986,1143.9263,1152.4386,1151.683,1151.683,nan,nan,nan,3058.9941,3056.4138,3049.4846,3040.4163,3055.1255,3047.5173,3050.8157,3048.725,3023.234,3025.6455,3040.4326,3041.2363,3040.981,3038.5408,3047.7542,3046.157,3049.6086,3058.9507,3061.2913,3062.562,3061.2214,3061.7876,3061.5693,3063.1394,3061.595,3061.6802,3061.7522,3060.0237,3059.506,3059.6514,3050.5554,3054.1929,3056.9883,3055.5598,3040.8564,3043.7744,3012.5513,2844.7078,2845.3884,2845.0854,2847.0017,2846.8352,2846.8486,2845.947,2850.8699,2850.3054,2850.219,2849.7678,2852.6702,2851.4517,2824.5596,2823.2285,2846.923,2848.13,2861.2302,2867.5413,2850.27,2986.2224,3063.777,3064.3164,3104.6902,3104.956,3104.1155,3088.7043,3112.9011,3112.3145,3110.701,3127.727,3122.8103,3121.2346,3155.2803,3148.9414,3133.3193,3139.921,3321.6064,3331.5989,3329.606,3350.8777,3350.168,3346.9414,3350.2751,3350.879,3350.7134,3350.2993,3348.8298,3349.3123,3347.9412,3326.8574,3325.8562,3327.533,3323.386,3323.477,3323.9521,3328.2769,3337.1184,3337.587,3338.1206,3351.6118,3350.6226,3354.6382,3365.0786,3367.5964,3366.7913,3367.9453,3364.2563,3366.525,3366.6528,3354.9246,3353.3123,3349.3079,3331.3992,3330.0864,3329.085,3328.226,3307.0642,3306.4214,3306.1384,3291.5408,3291.664,3291.415,3281.6157,3281.8145,3282.0789,3282.2158,3271.219,3271.6455,3271.5286,3259.45,3259.4624,3259.945,3244.8215,3244.8108,3244.9907,3245.097,3231.8862,3231.8733,3231.683,3218.4404,3218.224,3218.0593,3203.8596,3203.868,3203.896,3203.945,3189.2546,3189.3071,3189.0251,3173.3232,3173.1877,3172.9727,3158.7024,3158.629,3158.6707,3158.7825,3145.5398,3145.561,3145.6482,3133.5188,3133.5552,3133.566,3120.865,3120.7751,3120.8188,3120.7988,3108.41,3108.5107,3108.5183,3096.0981,3096.245,3096.2092,3082.7485,3082.6812,3082.843,3082.75,3067.9978,3067.9998,3067.6536,3052.498,3052.3804,3052.5112
3170.4326,3175.7437,3176.5437,3166.3457,3166.7185,3166.687,3157.9756,3157.8743,3157.8071,3157.6904,3153.5557,3153.5754,3153.6062,3143.2524,3143.4407,3144.8545,3134.9033,3138.4517,3140.6174,3144.79,3123.2546,3125.7385,3125.6821,3109.8264,3109.8264,3109.8264,nan,nan,nan,nan,nan,nan,nan,nan,nan,nan,nan,nan,nan,nan,nan,nan,nan,nan,nan,nan,nan,nan,nan,nan,nan,nan,nan,nan,nan,nan,nan,nan,1208.9133,1208.9133,1200.4814,1200.9862,1203.0056,1195.23,1195.2821,1196.4093,1186.5886,1187.3586,1189.1025,1187.7628,1173.3241,1174.9701,1175.5104,1165.4072,1166.1362,1168.071,1158.6556,1158.1274,1157.7484,1157.5085,1153.1334,1153.4468,1153.8422,1150.8915,1151.1116,1151.2372,1148.9867,1149.1322,1149.297,1149.3506,1147.5123,1147.4652,1147.4902,1146.744,1146.7949,1146.8567,1146.4281,1146.4409,1146.4576,1146.6187,1145.8395,1145.5212,1145.7437,1144.6896,1144.6555,1144.706,1143.4122,1143.4612,1143.4637,1143.349,1142.6858,1142.7212,1142.746,1142.5879,1142.5784,1142.5995,1143.2722,1143.2571,1143.2289,1143.1584,1143.7913,1143.7819,1143.7612,1145.0237,1144.4014,1144.2517,1145.9436,1144.876,1143.9012,1143.9481,1151.683,1151.683,1151.683,nan,nan,nan,3051.3206,3050.399,3046.557,3036.0044,3072.951,3073.9749,3040.777,3024.6782,3033.923,3038.463,3034.185,3036.6714,3040.641,3039.889,3051.6094,3051.6294,3047.3857,3057.1108,3058.6426,3060.3494,3060.786,3060.7422,3060.3132,3060.5251,3060.7244,3060.919,3060.754,3058.3972,3059.606,3060.0752,3050.0386,3052.0522,3055.027,3055.1091,3043.4434,3039.8127,3013.008,2844.812,2845.2866,2845.1636,2847.023,2846.8462,2846.9414,2846.0232,2850.8254,2850.3584,2850.3843,2849.434,2852.8076,2852.2202,2824.6052,2822.216,2846.81,2848.2004,2858.3982,2868.6824,2851.6208,2983.2332,3061.4048,3064.7068,3104.8193,3105.0212,3104.264,3091.0217,3112.8992,3112.235,3110.356,3127.3303,3122.8643,3122.344,3157.69,3149.8247,3133.4119,3136.4614,3319.7676,3332.274,3329.147,3351.04,3350.3,3347.1213,3349.9956,3350.6729,3350.8037,3350.3435,3349.0415,3349.9546,3348.255,3326.6472,3325.772,3327.3206,3321.9363,3323.9346,3324.6814,3325.587,3334.1729,3336.2834,3335.7603,3348.6833,3351.3616,3351.166,3360.404,3362.1802,3363.4968,3363.5854,3360.7473,3362.222,3363.2126,3349.6924,3350.5183,3348.629,3330.3105,3329.0696,3328.4663,3327.1335,3306.2434,3305.8655,3306.0159,3290.9768,3291.062,3290.9639,3281.3975,3281.6187,3281.7644,3281.9731,3271.2205,3271.5957,3271.551,3259.6792,3259.7349,3259.7903,3244.904,3245.065,3245.138,3245.1597,3231.748,3231.6921,3231.754,3218.24,3217.9927,3218.048,3203.6763,3203.714,3203.8247,3203.6702,3189.176,3189.1895,3189.0024,3173.189,3173.0298,3172.8975,3158.6165,3158.6218,3158.6448,3158.7527,3145.3972,3145.5537,3145.55,3133.5237,3133.5745,3133.6199,3120.9258,3120.891,3120.9067,3120.8079,3108.4019,3108.4702,3108.5083,3096.1724,3096.2444,3096.3364,3082.7607,3082.7258,3082.7104,3082.6387,3067.9932,3067.7373,3067.9475,3052.7395,3052.4678,3052.4746
3170.0708,3175.3489,3176.1975,3165.8477,3166.2847,3166.388,3157.685,3157.7073,3157.69,3157.6467,3153.6125,3153.6328,3153.7007,3143.972,3144.1548,3145.3784,3136.2678,3138.7312,3142.1487,3144.2983,3123.1,3124.886,3124.1191,3107.9534,3107.9211,3109.265,3097.6118,3097.612,3097.612,3097.612,nan,nan,nan,nan,nan,nan,nan,nan,nan,nan,nan,nan,nan,nan,nan,nan,nan,nan,nan,nan,nan,nan,nan,nan,nan,nan,nan,nan,1208.9133,1208.9133,1200.4657,1200.8046,1202.7448,1195.5616,1195.6334,1196.6261,1187.5624,1187.811,1188.6882,1187.5867,1173.9252,1174.6267,1175.8574,1166.1202,1167.3142,1168.735,1159.3826,1159.0114,1158.0435,1157.0592,1152.9093,1153.3728,1153.7329,1150.7588,1151.0425,1151.1422,1148.882,1149.0588,1149.193,1149.2876,1147.4976,1147.4922,1147.5043,1146.7692,1146.8169,1146.8103,1146.372,1146.3656,1146.547,1146.664,1146.0596,1145.6672,1145.6914,1144.5951,1144.5032,1144.6268,1143.4293,1143.3806,1143.3224,1143.2396,1142.6329,1142.6722,1142.7274,1142.5663,1142.5709,1142.5809,1143.252,1143.2516,1143.2224,1143.1665,1143.8066,1143.8049,1143.7223,1145.0082,1144.4338,1144.2961,1145.8798,1144.858,1143.9156,1143.9586,1151.683,1151.683,1151.6829,nan,nan,nan,3046.4148,3040.606,3033.5352,3019.1006,3079.5234,3073.9211,3048.9028,3018.3567,3015.1382,3012.701,3022.2822,3035.0303,3042.7776,3045.3591,3048.4382,3051.2795,3047.9312,3054.5867,3056.8674,3058.7253,3060.4944,3060.411,3060.1042,3059.8506,3059.6455,3060.0002,3059.8735,3056.43,3057.1506,3058.387,3049.517,3050.7542,3051.894,3054.9956,3043.089,3033.6345,3014.0386,2845.1018,2845.3386,2845.2834,2847.0579,2846.8828,2846.9526,2845.9905,2850.8198,2850.365,2850.418,2848.5396,2852.787,2852.714,2826.5962,2821.7659,2847.6497,2848.0327,2856.9868,2882.8008,2853.043,2964.038,3061.803,3064.7952,3104.8257,3105.033,3104.4016,3092.8557,3112.4944,3112.1848,3110.9014,3127.2588,3123.332,3124.4285,3163.496,3150.2463,3133.6975,3137.0544,3322.509,3333.0222,3329.3225,3351.053,3350.19,3346.9448,3349.845,3350.709,3350.75,3350.2441,3349.634,3349.3855,3347.8267,3328.1077,3326.4739,3328.587,3321.5886,3324.642,3325.4731,3325.5051,3332.8127,3334.9556,3336.3157,3346.213,3347.6565,3348.3232,3360.1707,3361.8918,3359.0771,3360.4084,3359.5652,3359.1821,3360.1057,3350.4531,3349.243,3348.4294,3329.4622,3329.225,3327.6245,3326.457,3305.848,3305.5442,3305.8357,3291.15,3291.161,3291.263,3281.6875,3281.7107,3281.9055,3282.1023,3271.3132,3271.4775,3271.5059,3259.674,3259.6948,3259.7397,3244.7642,3245.035,3245.1938,3245.2476,3231.671,3231.6643,3231.5063,3218.1665,3218.1797,3218.2034,3203.6924,3203.787,3203.663,3203.5688,3189.08,3189.1152,3188.8965,3173.141,3172.8418,3172.8608,3158.593,3158.64,3158.7085,3158.861,3145.4985,3145.6501,3145.712,3133.5347,3133.5906,3133.657,3120.9285,3120.8906,3120.9087,3120.6665,3108.279,3108.3318,3108.4814,3096.1538,3096.2842,3096.3174,3082.8845,3082.7993,3082.69,3082.5833,3067.8645,3067.942,3067.914,3052.782,3052.7446,3052.6433
3172.7554,3177.5881,3178.5823,3169.4731,3169.7588,3169.878,3163.7217,3163.659,3163.623,3163.4363,3159.6797,3159.287,3159.1855,3149.3435,3149.016,3149.8396,3137.698,3140.0068,3141.345,3143.7954,3122.8008,3124.49,3123.7314,3109.8264,3109.8262,3109.8264,nan,nan,nan,nan,nan,nan,nan,nan,nan,nan,nan,nan,nan,nan,nan,nan,nan,nan,nan,nan,nan,nan,nan,nan,nan,nan,nan,nan,nan,nan,nan,1204.9478,1205.1619,1205.0696,1199.4053,1199.6708,1200.8346,1193.385,1193.9733,1195.0304,1185.7994,1186.3059,1186.5785,1186.214,1174.7087,1175.4725,1175.8368,1167.945,1169.0067,1170.1802,1162.6698,1162.8297,1162.4155,1160.5576,1155.2289,1155.4441,1155.6942,1152.2041,1152.72,1153.029,1150.3623,1150.4901,1150.6304,1150.8716,1149.0559,1149.0984,1149.1344,1148.6272,1148.5966,1148.6497,1148.5068,1148.49,1148.593,1148.5636,1148.6086,1148.4791,1148.4293,1147.5845,1147.4437,1147.488,1145.7549,1145.4431,1145.3768,1145.3494,1144.0986,1144.1086,1144.1477,1143.7101,1143.7627,1143.8236,1144.39,1144.4294,1144.3926,1144.2828,1145.3632,1144.7958,1144.7043,1146.9534,1145.3168,1144.903,1151.7196,1149.3839,1147.5321,1144.5865,1160.7063,1167.7493,nan,nan,nan,nan,nan,3041.9807,3060.9744,3063.7,3015.3665,3056.6174,3052.6204,3018.188,3031.9573,3008.7698,3018.1816,2993.5398,3028.8337,3033.104,3050.1262,3053.1514,3059.107,3062.1277,3062.0913,3067.3455,3066.5305,3064.7673,3064.7979,3065.7393,3064.8342,3065.587,3065.667,3062.0293,3062.6033,3063.107,3056.3633,3057.1997,3059.3706,3061.3003,3047.0552,3049.9053,3009.0244,2839.2144,2843.2024,2842.2102,2845.519,2845.4336,2845.2996,2843.2449,2848.9868,2848.5803,2848.6096,2845.6663,2850.5718,2848.4216,2822.2827,2822.7776,2843.5881,2844.32,2849.9214,2872.843,2844.034,2932.4202,3047.3662,3052.3071,3096.7036,3097.0798,3096.6345,3085.6704,3105.6404,3104.8572,3103.7258,3119.8965,3116.585,3118.417,3155.8738,3143.4817,3126.9863,3127.241,3298.8003,3327.1606,3323.741,3349.5544,3349.2615,3345.8416,3350.1677,3350.0703,3349.623,3348.6992,3349.936,3350.0925,3349.5227,3337.2625,3337.0215,3339.5562,3311.7273,3314.1504,3313.4585,3315.6099,3304.3188,3304.0305,3305.3499,3303.8882,3305.7842,3308.1384,3313.8604,3315.2927,3312.5928,3312.8293,3312.2812,3314.1355,3315.134,3308.676,3310.052,3309.1663,3295.524,3294.7534,3293.887,3292.6729,3280.0586,3279.6375,3280.2415,3268.303,3268.0383,3268.22,3261.2964,3261.3142,3261.4497,3261.5735,3253.431,3253.3906,3253.5076,3245.1965,3245.092,3245.1567,3231.832,3231.9756,3232.1016,3232.1233,3218.1099,3218.1765,3217.865,3204.204,3204.2454,3204.1653,3190.9639,3190.9485,3190.8862,3190.8052,3177.9731,3177.9998,3177.743,3164.2659,3164.2002,3164.177,3152.2312,3152.1643,3152.2583,3152.3733,3140.5066,3140.5034,3140.5945,3129.4973,3129.5894,3129.6003,3117.5366,3117.6167,3117.4824,3117.2625,3106.514,3106.5989,3106.5742,3095.4517,3095.5527,3095.6685,3083.7344,3083.7642,3083.7712,3083.718,3069.7595,3069.74,3069.4932,3054.687,3054.643,3054.621
3170.9512,3175.222,3176.5588,3166.856,3167.2268,3167.5027,3160.7664,3160.863,3160.816,3160.6702,3157.2202,3156.8179,3156.525,3147.621,3147.5305,3148.4062,3137.049,3138.496,3140.298,3142.6987,3122.7083,3124.7986,3124.6028,3109.8267,3109.8264,3109.8264,nan,nan,nan,nan,nan,nan,nan,nan,nan,nan,nan,nan,nan,nan,nan,nan,nan,nan,nan,nan,nan,nan,nan,nan,nan,nan,nan,nan,nan,nan,1203.873,1204.9122,1205.7622,1205.8132,1199.5521,1199.7631,1201.107,1193.466,1194.2286,1195.25,1185.9563,1187.0449,1186.6597,1186.3635,1175.6616,1175.5757,1176.1597,1168.4573,1168.9885,1169.4646,1163.2013,1164.1111,1163.7446,1162.4706,1155.8632,1155.3488,1155.5099,1152.0154,1152.4233,1152.7627,1150.2693,1150.3678,1150.5443,1150.7947,1149.0227,1149.0916,1149.16,1148.6569,1148.5511,1148.5504,1148.4216,1148.491,1148.5581,1148.5282,1148.475,1148.392,1148.4054,1147.5222,1147.5559,1147.3516,1145.543,1145.2552,1145.195,1145.1461,1143.9678,1144.1621,1144.3105,1143.8619,1143.8909,1143.9338,1144.4371,1144.443,1144.3721,1144.3196,1145.4897,1144.9288,1144.7944,1146.9458,1145.3007,1145.0895,1151.4811,1155.5548,1148.8789,1145.0868,1152.5096,nan,nan,nan,nan,nan,nan,3025.1792,3060.6787,3063.824,3018.0957,3057.5208,3068.557,3016.2527,3010.946,3008.4941,3011.577,2995.1663,3006.899,3027.5762,3051.3276,3052.991,3060.235,3066.376,3068.4697,3070.2878,3066.362,3066.0461,3066.0383,3067.4321,3065.77,3066.52,3066.8633,3063.574,3063.9226,3063.7358,3056.5237,3058.5605,3060.5957,3062.4272,3049.695,3049.9775,3009.0674,2838.6956,2843.3445,2842.3005,2845.5366,2845.4128,2845.3152,2843.397,2848.9944,2848.681,2848.6763,2845.7366,2850.535,2848.9595,2822.2004,2822.746,2842.3335,2843.8142,2847.901,2871.5872,2848.131,2927.8374,3045.4355,3052.1345,3096.8215,3097.1636,3096.8367,3087.6917,3106.7034,3105.011,3103.696,3120.5908,3116.8176,3115.5757,3155.0068,3144.982,3126.3657,3128.2732,3284.3389,3325.5806,3323.6594,3349.4922,3349.1777,3346.1392,3350.236,3350.1152,3349.8015,3349.257,3349.7605,3349.991,3349.5586,3338.2722,3334.4543,3337.6284,3312.521,3313.0327,3312.4832,3316.0173,3303.7017,3302.1711,3303.6135,3304.1113,3303.5664,3305.804,3311.0835,3312.5706,3312.416,3311.6426,3311.453,3311.6387,3313.025,3305.902,3306.9236,3307.787,3295.4937,3293.8394,3294.0203,3293.49,3280.937,3280.3228,3280.0986,3268.1938,3268.6194,3268.7656,3261.7563,3261.7375,3261.6748,3261.6172,3253.4575,3253.3267,3253.254,3244.9172,3245.1194,3245.0452,3231.7732,3231.9424,3232.0454,3232.0132,3218.0693,3218.1646,3218.0266,3204.242,3204.2112,3204.0496,3190.8518,3190.8076,3190.8567,3190.7263,3177.7393,3177.785,3177.662,3164.304,3164.1213,3164.1482,3152.2256,3152.1985,3152.2788,3152.419,3140.6199,3140.6384,3140.7014,3129.5745,3129.597,3129.5042,3117.476,3117.4158,3117.4377,3117.3625,3106.5708,3106.6309,3106.6252,3095.4312,3095.55,3095.627,3083.6545,3083.8296,3083.8223,3083.7783,3069.811,3069.566,3069.4226,3055.022,3054.612,3054.653
3171.0898,3175.9363,3176.8645,3167.2786,3167.688,3167.8013,3160.9058,3160.9395,3160.795,3160.6853,3156.8147,3156.359,3156.1816,3148.0632,3147.827,3148.0125,3136.9048,3138.1338,3140.3044,3142.487,3122.8347,3125.9788,3125.915,3109.8262,3109.8262,3109.8267,nan,nan,nan,nan,nan,nan,nan,nan,nan,nan,nan,nan,nan,nan,nan,nan,nan,nan,nan,nan,nan,nan,nan,nan,nan,nan,nan,nan,nan,nan,1203.8962,1203.9838,1205.6356,1205.9004,1199.7299,1199.995,1201.4062,1193.9552,1194.5621,1195.4398,1186.2649,1186.8408,1187.4001,1188.2107,1178.7828,1176.0475,1175.8151,1167.8074,1168.0562,1169.1207,1163.022,1164.0569,1164.2692,1163.765,1157.4324,1155.5165,1155.3429,1151.7927,1152.0233,1152.3597,1150.1808,1150.2986,1150.378,1150.5729,1148.9524,1149.0543,1149.1514,1148.6711,1148.5756,1148.5244,1148.331,1148.3533,1148.4431,1148.52,1148.4735,1148.5312,1148.4825,1147.2834,1147.1372,1147.1553,1145.4471,1145.056,1145.0671,1145.1824,1143.9785,1144.0634,1144.0724,1143.5662,1143.5648,1143.6416,1144.224,1144.2955,1144.2286,1144.2599,1145.5222,1144.9312,1144.7917,1145.5487,1145.0712,1144.207,1183.6709,1183.8156,1183.1265,1146.0573,1161.5847,1183.6235,1183.8156,nan,nan,nan,nan,3023.4124,3061.24,3063.8289,3015.4792,3057.485,3066.5222,3021.9817,3049.026,3038.3652,3029.8298,3003.7974,3013.134,3028.908,3054.8591,3057.9163,3057.0605,3069.4404,3069.8591,3070.0874,3065.9739,3066.2314,3067.0547,3068.3274,3067.3743,3067.3804,3067.1475,3063.6858,3063.7097,3064.1667,3057.9553,3059.7344,3060.4275,3062.6008,3048.231,3040.9124,3009.8215,2838.2498,2843.4077,2842.3137,2845.5286,2845.408,2845.283,2843.3745,2848.936,2848.629,2848.6704,2846.0369,2850.5234,2850.1335,2822.251,2822.5852,2841.2585,2843.439,2848.732,2871.306,2855.3875,2917.4402,3041.0225,3051.5945,3097.0825,3097.4983,3096.8657,3089.0393,3107.323,3105.5461,3103.2505,3120.2917,3115.9092,3115.4038,3155.3062,3149.6262,3126.811,3126.91,3289.5627,3324.6777,3323.191,3349.646,3349.6672,3346.3342,3350.1248,3350.1316,3349.923,3349.5518,3349.6177,3349.9568,3349.5566,3338.5764,3337.4033,3337.9546,3312.601,3312.7534,3313.634,3315.9783,3303.7102,3301.2864,3301.881,3303.7988,3302.087,3303.162,3310.9265,3310.8555,3311.3457,3310.4192,3311.2847,3311.5217,3309.3318,3301.8782,3303.5571,3305.4639,3294.051,3294.4756,3293.398,3292.9521,3280.9,3280.5537,3280.122,3268.545,3268.5303,3268.7437,3261.7917,3262.0017,3261.9097,3262.0298,3253.5195,3253.3965,3253.2227,3245.007,3245.0005,3245.3083,3231.8826,3231.8792,3232.061,3232.0342,3217.8115,3217.9363,3217.9434,3204.3225,3204.0684,3203.9453,3190.7678,3190.6658,3190.652,3190.622,3177.669,3177.7249,3177.6226,3164.2734,3164.197,3164.0767,3152.2307,3152.2295,3152.2844,3152.4653,3140.6487,3140.7688,3140.7664,3129.577,3129.5095,3129.473,3117.344,3117.362,3117.4116,3117.4805,3106.5576,3106.6367,3106.609,3095.447,3095.4927,3095.5166,3083.7217,3083.8337,3083.9087,3083.898,3069.6912,3069.6375,3069.3015,3054.778,3054.6277,3054.4758
3170.7559,3175.3828,3176.3743,3166.8203,3167.2563,3167.455,3160.43,3160.394,3160.5007,3160.2556,3156.4539,3156.319,3155.9895,3148.2568,3147.511,3148.129,3137.18,3138.2847,3140.2722,3142.3384,3122.7512,3125.9438,3125.8433,3109.8264,3109.8262,3109.8267,nan,nan,nan,nan,nan,nan,nan,nan,nan,nan,nan,nan,nan,nan,nan,nan,nan,nan,nan,nan,nan,nan,nan,nan,nan,nan,nan,nan,nan,nan,1203.3672,1203.2979,1204.6423,1205.4944,1200.1187,1200.3591,1201.5321,1194.4927,1194.977,1195.6469,1186.1414,1186.9847,1187.5114,1189.0289,1180.2513,1177.3395,1175.9591,1167.138,1167.289,1168.8232,1162.8522,1163.9799,1164.0955,1164.516,1158.0464,1156.4559,1155.7772,1151.8319,1151.9747,1152.2095,1150.0258,1150.2521,1150.34,1150.4341,1148.8723,1148.9888,1149.0829,1148.5858,1148.5267,1148.4778,1148.2924,1148.3323,1148.3699,1148.5168,1148.4263,1148.4982,1148.3612,1147.1512,1147.0381,1147.1501,1145.6788,1145.316,1145.1322,1145.0796,1143.9265,1143.798,1143.7478,1143.3877,1143.3599,1143.3918,1144.0211,1144.0453,1144.0789,1144.1698,1145.425,1144.8315,1144.6488,1145.3711,1144.8003,1143.9487,1183.8156,1184.6345,1186.1204,1154.4338,1164.7408,nan,nan,nan,nan,nan,nan,3022.8706,3061.4893,3063.829,3014.3064,3055.9753,3055.2969,3041.3818,3038.264,3039.6257,3003.98,3007.6804,3010.0452,3009.6123,3056.2324,3059.2874,3052.7568,3065.1946,3067.9958,3070.3694,3066.3237,3066.4578,3066.8662,3068.32,3067.1418,3066.6216,3065.555,3062.3557,3062.7917,3063.7883,3058.5486,3061.2512,3060.709,3060.4536,3045.1194,3035.9734,3011.5261,2837.258,2843.5723,2842.385,2845.4854,2845.386,2845.2751,2843.4404,2848.987,2848.666,2848.6836,2846.636,2850.481,2850.1272,2822.4639,2822.4595,2841.0322,2843.0864,2848.1392,2871.7363,2856.1528,2909.8223,3039.393,3050.5615,3097.5063,3097.8843,3096.9712,3089.9207,3107.656,3105.916,3102.8325,3120.177,3115.5532,3114.2078,3155.7146,3155.7573,3127.334,3124.699,3280.0896,3324.8262,3324.514,3349.977,3349.8528,3347.2173,3350.1514,3350.1025,3350.08,3349.5366,3349.5867,3350.0784,3349.7983,3340.4492,3338.4658,3336.3508,3312.1414,3313.294,3314.0103,3315.8894,3303.8027,3302.323,3302.5276,3305.2158,3304.361,3302.9214,3310.84,3311.7632,3310.9573,3309.7046,3313.3032,3311.8835,3310.6416,3301.662,3303.4292,3305.7458,3295.0513,3296.2693,3295.1406,3294.1387,3281.3918,3280.817,3281.539,3269.0378,3268.957,3268.9988,3261.9678,3262.1702,3261.9832,3262.1924,3253.7021,3253.5103,3253.4487,3245.0364,3245.0105,3245.4062,3232.0383,3231.9685,3232.153,3232.0405,3217.939,3218.0457,3217.9336,3204.2893,3204.1292,3204.0002,3190.7559,3190.6716,3190.6448,3190.585,3177.7705,3177.7522,3177.6792,3164.19,3164.1196,3164.2085,3152.2898,3152.2559,3152.3086,3152.4692,3140.575,3140.624,3140.6387,3129.4875,3129.4954,3129.4868,3117.421,3117.2947,3117.3765,3117.3774,3106.5388,3106.4956,3106.6052,3095.4104,3095.508,3095.6184,3083.7131,3083.9382,3083.8997,3083.8777,3069.812,3069.6626,3069.4592,3055.0032,3054.6445,3054.611
3176.4724,3181.1086,3182.217,3171.5337,3172.2498,3172.8127,3164.4119,3164.4836,3164.4724,3164.493,3161.0415,3160.7942,3160.406,3152.483,3151.811,3152.2266,3140.7446,3141.6948,3143.526,3141.5205,3124.588,3127.1104,3126.9915,3109.8264,3109.8264,3109.8264,nan,nan,nan,nan,nan,nan,nan,nan,nan,nan,nan,nan,nan,nan,nan,nan,nan,nan,nan,nan,nan,nan,nan,nan,nan,nan,nan,nan,1205.4521,1205.4521,1203.2047,1203.2529,1203.8225,1204.2244,1197.3938,1197.8766,1199.1825,1192.7478,1193.3971,1193.7919,1185.0575,1186.2937,1186.7284,1187.2267,1178.4274,1176.0735,1175.231,1169.672,1170.5317,1170.9379,1166.6327,1166.6473,1166.2032,1166.4141,1160.3119,1159.321,1158.8413,1154.0978,1153.9792,1154.433,1151.5969,1151.7614,1151.9379,1152.094,1150.2631,1150.4174,1150.5394,1150.1119,1150.1252,1150.1135,1150.2083,1150.1804,1150.23,1150.2737,1150.8152,1150.8584,1150.8004,1150.5176,1150.516,1150.4078,1149.1862,1148.9059,1148.809,1148.8583,1146.7607,1146.2621,1145.8998,1144.6936,1144.6437,1144.7781,1145.1512,1145.1814,1145.2106,1145.5874,1147.8389,1146.1812,1145.5221,1150.8987,1152.3109,1156.9167,1209.776,1210.8596,1210.7451,1159.5808,1183.8167,nan,nan,nan,nan,nan,2887.6323,2934.8535,3056.3599,3057.5186,3008.7324,3023.5432,3047.9932,3108.5798,3132.6858,3098.2834,3072.8945,3040.917,3049.5134,3084.1677,3039.048,3045.9006,3062.4988,3071.4302,3064.4707,3070.9038,3072.577,3073.3472,3074.277,3075.649,3071.3296,3071.7144,3072.361,3067.8994,3068.859,3068.2593,3058.1594,3058.2952,3059.6536,3063.5483,3044.9912,3040.6062,3008.8472,2827.1257,2841.25,2839.4907,2842.9695,2843.039,2842.7566,2840.203,2845.7515,2845.4846,2845.5708,2842.8801,2846.7488,2846.8848,2823.3616,2822.9946,2837.7146,2839.7642,2842.5356,2861.5928,2848.715,2879.0706,3002.256,3035.755,3086.9988,3087.3662,3086.5896,3080.836,3098.7913,3096.8296,3093.659,3111.0994,3107.131,3106.014,3146.0498,3148.7756,3120.8315,3116.7043,3268.4316,3318.982,3320.5232,3347.584,3347.508,3344.285,3348.4521,3348.1882,3348.3193,3347.6882,3348.605,3348.6707,3348.5474,3344.3381,3343.2373,3341.757,3315.1323,3316.8723,3320.1433,3320.7075,3287.704,3288.4949,3288.8728,3277.8845,3276.7017,3277.6523,3269.4282,3270.4814,3271.6562,3270.8853,3268.8333,3270.1763,3268.9429,3262.2422,3264.6064,3265.9727,3257.148,3260.513,3259.1458,3258.5247,3255.5288,3254.8608,3254.9514,3246.3867,3246.5771,3246.6162,3242.0767,3241.9922,3241.7346,3241.6628,3234.5686,3234.563,3234.2407,3228.7053,3228.691,3228.8445,3216.2363,3216.532,3216.518,3216.3855,3202.2585,3202.207,3202.0625,3188.2722,3188.0886,3188.0354,3176.3062,3176.1882,3176.2148,3176.2175,3165.7139,3165.711,3165.672,3154.5525,3154.5737,3154.5867,3144.9202,3144.903,3144.945,3145.0488,3134.5552,3134.6191,3134.6616,3124.4949,3124.49,3124.5203,3113.4978,3113.4646,3113.3767,3113.3179,3103.5427,3103.5493,3103.7285,3094.0837,3094.1482,3094.1853,3083.9373,3083.9702,3084.031,3084.0706,3070.269,3070.047,3069.7808,3055.7622,3055.4128,3055.5361
3175.7158,3180.3867,3181.5776,3171.214,3172.0886,3172.383,3164.2268,3164.308,3164.3037,3164.3823,3160.6523,3160.3572,3159.9531,3152.1733,3150.9521,3151.0872,3140.5623,3140.1956,3140.0132,3129.4436,3125.4878,3126.562,3126.4053,3109.8264,3109.8264,3109.8264,nan,nan,nan,nan,nan,nan,nan,nan,nan,nan,nan,nan,nan,nan,nan,nan,nan,nan,nan,nan,nan,nan,nan,nan,nan,nan,nan,1205.4521,1205.4521,1205.4521,1203.2555,1203.2205,1203.8715,1204.3304,1197.8369,1198.3915,1199.6619,1193.3418,1193.8228,1194.1155,1185.5826,1188.6343,1186.5696,1185.731,1176.5259,1175.9445,1175.7917,1170.6312,1171.6798,1171.5032,1166.5228,1166.3572,1165.9025,1166.1025,1160.5707,1159.7372,1159.3025,1154.5968,1154.0258,1154.2308,1151.4166,1151.6034,1151.7635,1152.03,1150.22,1150.3472,1150.4624,1150.0897,1150.112,1150.1041,1150.1979,1150.1973,1150.1919,1150.264,1150.8011,1150.9192,1150.8887,1150.7474,1150.6459,1150.5359,1149.2134,1149.1685,1149.2494,1149.4069,1146.9185,1146.2805,1146.0076,1144.9713,1144.8612,1144.9128,1145.1749,1145.1558,1145.1246,1145.2108,1147.3662,1145.6442,1145.3818,1154.7019,1156.9185,1156.9268,1210.9669,1210.5764,1210.8752,1165.9038,1183.8156,1183.8156,nan,nan,nan,nan,3029.8123,3029.824,3057.512,3057.5186,3008.377,3013.0461,3051.4224,3096.7935,3087.804,3053.037,3067.7473,3032.599,3076.369,3057.2903,3055.973,3062.9006,3053.1426,3068.2559,3067.2708,3068.5146,3074.09,3074.526,3076.1934,3077.2168,3072.438,3073.1487,3074.506,3067.8564,3069.304,3069.0242,3057.128,3058.7695,3060.5972,3064.8806,3044.295,3034.6067,3008.7715,2826.3398,2841.1914,2839.4888,2842.9502,2843.0552,2842.9075,2840.2437,2845.668,2845.507,2845.4006,2841.7698,2847.1377,2846.9607,2823.3772,2822.9783,2836.351,2839.457,2841.3855,2867.8506,2850.185,2867.2917,2966.745,3036.6838,3086.9177,3087.4758,3086.637,3082.1133,3098.9258,3096.9795,3094.2776,3110.878,3106.1553,3106.4187,3145.6936,3145.0234,3122.1648,3117.1367,3268.949,3314.9856,3320.3757,3347.7693,3347.6223,3344.4963,3348.582,3348.282,3348.1394,3347.6443,3348.5837,3348.5664,3348.4707,3343.9255,3344.829,3342.889,3315.8733,3318.4192,3318.1152,3317.9128,3286.5603,3288.3638,3288.9336,3278.5256,3277.1138,3277.4048,3269.927,3270.2354,3271.2476,3272.0405,3268.1897,3269.797,3270.5933,3263.5532,3266.1685,3267.652,3258.7085,3259.445,3260.99,3259.7573,3257.8428,3256.582,3256.7852,3247.775,3247.7854,3247.513,3242.5989,3242.4565,3242.2043,3242.1821,3235.054,3234.7222,3234.6738,3229.0837,3228.833,3228.6663,3216.057,3216.3225,3216.4424,3216.5125,3202.1985,3202.2341,3202.0176,3188.1936,3188.0308,3188.0466,3176.2834,3176.324,3176.3723,3176.3037,3165.8318,3165.7422,3165.6677,3154.6523,3154.6357,3154.6514,3144.8845,3144.9485,3145.0452,3145.0813,3134.6438,3134.6543,3134.66,3124.4734,3124.478,3124.5083,3113.5024,3113.4321,3113.3777,3113.304,3103.529,3103.6228,3103.7202,3094.0796,3094.1357,3094.2302,3083.9434,3083.9797,3084.0515,3084.0383,3070.1938,3069.796,3069.713,3055.8884,3055.5525,3055.5134
3175.19,3179.386,3180.8337,3170.864,3171.7908,3172.0466,3163.9858,3164.118,3164.196,3164.4563,3160.3652,3160.182,3159.7263,3152.2283,3150.4568,3150.3857,3139.7683,3138.5886,3134.8713,3129.106,nan,3126.2046,3126.0305,3109.8264,3109.8264,3109.8264,nan,nan,nan,nan,nan,nan,nan,nan,nan,nan,nan,nan,nan,nan,nan,nan,nan,nan,nan,nan,nan,nan,nan,nan,nan,nan,nan,1205.4521,1205.4521,1205.4521,1203.2572,1203.2721,1203.8951,1204.465,1198.3414,1198.8873,1200.0605,1193.9241,1195.111,1194.8466,1184.7003,1187.2439,1186.7529,1185.6295,1176.701,1176.3191,1175.6302,1170.3192,1171.0936,1171.404,1166.3444,1166.2822,1165.7224,1165.7653,1161.0006,1160.6226,1160.4263,1155.6151,1154.6536,1154.3549,1151.1927,1151.3339,1151.5162,1151.775,1150.138,1150.2618,1150.3962,1150.0604,1150.0918,1150.1243,1150.229,1150.234,1150.228,1150.2565,1150.787,1150.7711,1150.75,1150.669,1150.743,1150.5566,1149.4415,1149.541,1149.4175,1149.5099,1147.3838,1146.548,1146.1926,1145.1163,1145.1482,1145.1533,1145.306,1145.2076,1145.2554,1145.3475,1146.961,1145.6464,1145.3917,1153.1461,1156.9174,1157.365,1211.1007,1211.3663,1211.6353,1204.3691,1183.8156,nan,1183.8156,nan,nan,nan,2996.4417,3040.6038,3057.5168,3057.5186,3007.847,3044.2834,3039.3948,3023.2344,3031.6377,3060.381,3049.243,3052.6594,3074.5781,3041.385,3057.3235,3063.4453,3068.579,3059.6287,3056.6238,3071.0862,3074.1206,3074.6907,3076.8157,3076.317,3071.6394,3072.0781,3073.849,3067.4675,3067.7158,3067.9944,3055.5835,3059.877,3061.4773,3063.2446,3043.8625,3046.4814,3013.0151,2826.7302,2841.0361,2839.471,2842.9333,2843.091,2843.0977,2840.142,2845.643,2845.4868,2845.3916,2841.46,2847.1003,2846.7136,2823.7605,2822.9746,2836.1292,2839.4468,2841.83,2866.38,2850.3657,2870.6804,2954.2412,3037.5747,3087.0425,3087.5657,3086.506,3082.3152,3098.5625,3096.9412,3094.3657,3111.049,3105.8474,3107.0625,3149.817,3147.3098,3122.2915,3117.6204,3263.9807,3314.3975,3320.1187,3347.8064,3347.628,3345.2134,3348.6777,3348.4148,3348.2278,3347.7092,3348.4712,3348.6255,3348.577,3343.4985,3344.9482,3344.2678,3319.5334,3318.6,3317.6992,3317.7222,3284.5234,3287.6099,3288.31,3279.1565,3278.181,3278.8215,3272.49,3271.3794,3271.7913,3270.983,3268.505,3271.301,3273.015,3265.2817,3264.913,3266.3242,3258.1206,3259.3113,3260.691,3261.7637,3257.2727,3256.981,3257.222,3248.1948,3248.1584,3247.9373,3243.3557,3243.1108,3242.776,3242.5366,3235.4624,3235.1057,3235.0874,3229.3147,3228.8254,3228.775,3216.221,3216.2917,3216.509,3216.4604,3202.2969,3202.1726,3201.8774,3188.0386,3188.0066,3188.013,3176.3372,3176.3203,3176.381,3176.303,3165.8342,3165.6877,3165.6987,3154.6365,3154.704,3154.7175,3144.9163,3144.9832,3145.071,3145.063,3134.628,3134.6929,3134.662,3124.4338,3124.36,3124.461,3113.4824,3113.4194,3113.3027,3113.298,3103.432,3103.6235,3103.6724,3094.072,3094.1443,3094.1914,3083.8354,3083.9631,3084.0662,3083.9941,3070.193,3070.0947,3069.971,3055.5857,3055.2175,3055.573
3174.841,3178.8477,3180.094,3170.4597,3171.2925,3171.9043,3163.657,3163.78,3164.1726,3164.4517,3159.9907,3159.929,3159.5547,3152.0217,3150.4172,3150.2668,3140.3088,3135.4758,3129.3948,3129.0051,nan,nan,3128.0298,3109.8264,3109.8264,3109.8264,nan,nan,nan,nan,nan,nan,nan,nan,nan,nan,nan,nan,nan,nan,nan,nan,nan,nan,nan,nan,nan,nan,nan,nan,nan,nan,nan,1205.4521,1205.4521,1205.4521,1203.3225,1203.4364,1203.9519,1204.5563,1198.7119,1199.2305,1199.9513,1194.2188,1195.9545,1195.8236,1184.2716,1186.0349,1186.66,1185.3861,1176.2668,1176.252,1175.7351,1170.2383,1171.2443,1171.1012,1165.2919,1165.7396,1165.8735,1166.1478,1161.5856,1162.0426,1161.0853,1155.64,1154.5995,1154.4733,1151.1805,1151.3021,1151.4431,1151.6975,1150.0854,1150.2422,1150.3373,1150.032,1150.078,1150.1222,1150.236,1150.2146,1150.2081,1150.2379,1150.7379,1150.7725,1150.7849,1150.7653,1150.7499,1150.5983,1149.5139,1149.435,1149.2727,1149.4749,1147.5486,1147.0272,1146.8086,1145.5248,1145.6034,1145.5522,1145.4595,1145.4258,1145.4152,1145.3726,1146.1333,1145.5785,1145.3011,1153.1509,1156.9167,1159.6808,1211.4772,1211.8729,1206.4384,1207.8124,1183.8156,1183.8156,1183.8156,nan,nan,nan,2969.0063,3049.9329,3057.5183,3057.5186,3003.218,3057.2966,3047.5588,3036.3162,3033.9924,3035.6206,3059.3647,3084.9204,3065.3547,3048.7556,3051.8276,3058.301,3081.5833,3059.4963,3059.7793,3076.5027,3072.705,3073.2656,3074.6335,3074.7932,3070.811,3071.552,3072.2083,3066.2622,3067.2915,3067.3718,3053.4844,3058.5828,3061.6826,3060.8293,3044.1018,3049.175,3031.624,2826.6187,2840.4998,2839.4983,2843.1067,2843.1277,2842.9824,2840.1821,2845.6018,2845.4468,2845.3416,2841.1243,2847.1184,2846.6282,2824.5105,2822.9812,2836.8525,2839.4844,2843.1099,2864.0505,2850.4438,2874.5583,2940.0461,3039.568,3087.1592,3087.4983,3086.4727,3082.5752,3099.8152,3096.7131,3092.8542,3112.8333,3108.9543,3108.4165,3150.42,3149.1814,3123.5818,3117.1714,3267.783,3317.0962,3320.2415,3347.6946,3347.462,3345.5476,3348.8245,3348.4722,3348.368,3347.919,3348.403,3348.627,3348.594,3343.2017,3343.4922,3344.6924,3327.18,3321.244,3319.3496,3321.3152,3285.6184,3286.2751,3288.738,3278.7976,3278.528,3280.4219,3274.5232,3273.778,3272.5486,3272.6643,3269.1226,3272.813,3274.076,3266.5918,3265.133,3263.8037,3257.0193,3259.7952,3260.058,3258.8188,3256.2332,3256.229,3256.4517,3247.7964,3248.1504,3248.0283,3243.5706,3243.527,3243.2295,3242.9412,3235.728,3235.6545,3235.3457,3229.3386,3229.2456,3229.1855,3216.5247,3216.341,3216.4263,3216.4812,3202.3232,3202.2058,3201.9812,3188.3232,3188.0776,3188.035,3176.2632,3176.172,3176.2854,3176.2698,3165.6743,3165.6987,3165.702,3154.606,3154.6929,3154.7644,3145.046,3145.0488,3145.036,3145.1262,3134.6108,3134.6538,3134.594,3124.41,3124.2344,3124.272,3113.4106,3113.337,3113.3896,3113.3345,3103.619,3103.6318,3103.727,3094.0237,3094.1567,3094.1692,3083.8318,3083.9114,3084.0361,3084.013,3070.0989,3069.8909,3069.7185,3055.673,3055.5303,3055.4907
