2644.8203,2644.8276,2644.835,2644.8398,2645.6755,2645.65,2645.6528,2647.581,2647.5754,2647.5735,2650.3035,2650.3423,2650.4883,2650.543,2655.138,2655.6926,2656.7632,2665.4106,2664.4045,2663.8835,2674.2917,2675.3684,2674.9133,2674.078,2685.0525,2685.4062,2684.701,2694.765,2696.0422,2697.4927,2704.8384,2704.1936,2704.3933,2706.4023,2706.326,2705.5818,2703.2305,2707.2056,2706.6313,2706.1658,2714.0732,2712.1145,2710.9578,2709.4424,2715.0808,2715.336,2715.467,2717.1694,2717.2336,2717.0796,2718.0908,2717.862,2717.7266,2717.6072,2720.3054,2720.2883,2720.3833,2713.9272,2716.5862,2719.8735,2700.2134,2677.2375,2678.5793,2682.1655,2685.9868,2682.5645,2677.216,2687.3496,2684.9863,2684.6282,2702.103,2702.103,2702.103,2702.103,nan,nan,nan,nan,nan,nan,nan,nan,nan,nan,nan,nan,nan,nan,nan,nan,nan,nan,nan,nan,nan,nan,nan,nan,nan,nan,nan,nan,nan,nan,nan,nan,nan,nan,nan,nan,nan,nan,nan,nan,nan,906.2075,906.2075,888.4522,887.99084,891.5966,883.4209,883.548,884.74207,886.3064,878.35803,879.01587,879.96533,874.2532,874.7045,874.93146,870.6391,870.7445,870.7666,870.8247,868.39233,868.4381,868.4605,866.8773,866.9121,866.93787,865.83545,865.87366,865.8946,865.9091,864.83136,864.83673,864.7988,864.81903,864.8093,864.8091,865.49744,865.4668,865.43787,865.4134,866.6627,866.6446,866.63605,867.7992,867.80505,867.81085,869.1861,869.21423,869.23096,869.24176,870.8621,870.869,870.8618,872.6691,872.6381,872.6097,874.4557,874.4436,874.4327,874.4258,876.46796,876.435,876.41656,878.26825,878.2449,878.31476,880.3561,880.4485,880.5034,880.5229,882.54694,882.5448,882.50714,884.9894,884.966,884.9485,887.8026,887.80035,887.82166,887.8303,890.99585,891.01385,891.00214,893.8759,893.87244,893.84753,896.60144,896.588,896.59235,896.605,899.6354,899.6691,899.6542,902.47614,902.47595,902.47864,904.9942,904.9913,904.99084,904.99005,907.0415,907.0278,907.0326,909.311,909.301,909.24677,911.98535,911.8842,911.8404,911.75037,915.8709,915.656,915.64325,921.7684,921.70264,921.73364,930.8289,930.8392,930.9621,931.2981,942.87274,943.1739,943.4755,957.066,958.193,957.1013,968.5007,966.7184,965.04553,963.38556,973.3955,971.3054,971.44714,981.84125,982.1546,982.62286,nan,nan,nan,nan,2776.9424,2763.642,2763.6384,2808.282,2830.3955,2835.5718,2846.3875,2838.9395,2852.4006,2838.606,2860.5017,2854.3945,2842.6633,2874.7747,2871.4067,2864.1167,2865.0789,2873.0344,2865.6038,2866.249,2865.0825,2865.233,2865.061,2873.9133,2871.862,2867.5059,2873.681,2873.6924,2873.7568,2873.6633,2875.505,2874.7075,2875.3147,2876.7117,2876.5315,2877.7576,2879.182,2879.5571,2879.3237,2878.6936,2875.4595,2875.273,2875.8748,2877.7356,2874.856,2873.9485,2879.0767,2902.5269,3017.13,3017.2522,3195.431,3230.3308,3236.6492,3274.9353,3263.9436,3257.3376,3248.6096,3259.8027,3263.7944,3234.977,3269.0588,3268.4104,3268.2666,3279.3794,3276.9197,3291.7566,3334.0427,3331.782,3331.0632,3341.8774,3333.7512,3326.817,3344.616
2644.8184,2644.8276,2644.8313,2644.8337,2645.6682,2645.6196,2645.6794,2647.61,2647.621,2647.5645,2650.365,2650.3684,2650.4866,2650.4692,2654.3525,2655.8835,2657.0894,2665.8413,2664.7407,2664.1116,2674.309,2675.5425,2675.0344,2674.1758,2685.0278,2685.558,2684.9475,2695.283,2696.5479,2698.064,2704.6624,2704.126,2704.5923,2706.2983,2705.7898,2705.3687,2702.252,2707.171,2706.4973,2706.0586,2713.013,2711.3318,2711.6855,2708.982,2715.0864,2715.6924,2715.9504,2717.5713,2717.4124,2717.0552,2718.1965,2718.0154,2717.878,2717.784,2720.4785,2720.456,2720.4648,2714.7227,2716.6487,2720.4937,2700.2568,2676.396,2678.5667,2683.3794,2686.314,2681.903,2676.6897,2688.737,2685.2246,2684.6245,2702.103,2702.103,2702.103,2702.103,nan,nan,nan,nan,nan,nan,nan,nan,nan,nan,nan,nan,nan,nan,nan,nan,nan,nan,nan,nan,nan,nan,nan,nan,nan,nan,nan,nan,nan,nan,nan,nan,nan,nan,nan,nan,nan,nan,nan,nan,906.2075,906.2075,906.2075,887.9939,887.62146,891.8936,883.6735,883.9341,885.1879,886.8756,878.7403,879.41315,880.3013,874.468,874.9222,875.0765,870.73914,870.765,870.78625,870.8814,868.45734,868.48724,868.5607,866.957,866.95264,866.9607,865.8743,865.9288,865.97266,865.96564,864.87256,864.84424,864.82806,864.8309,864.82416,864.82965,865.5234,865.47626,865.43097,865.4116,866.6622,866.64655,866.61896,867.77826,867.80066,867.8251,869.2127,869.2245,869.23645,869.2387,870.8622,870.85706,870.85364,872.6583,872.647,872.62463,874.4929,874.4942,874.4904,874.49316,876.5108,876.5052,876.4518,878.31384,878.31476,878.3509,880.42426,880.478,880.50055,880.5171,882.5102,882.52576,882.49963,884.9861,884.9583,884.94635,887.83826,887.81525,887.816,887.846,890.9981,891.0047,891.0105,893.8727,893.8568,893.84326,896.611,896.5947,896.59357,896.5995,899.62787,899.65405,899.66656,902.4785,902.46454,902.4813,904.99133,904.9921,904.98846,904.9888,907.031,907.0352,907.028,909.31323,909.288,909.25885,911.9885,911.9274,911.8825,911.8024,915.8963,915.7325,915.73474,921.8774,921.8565,921.97736,931.04694,931.15405,931.2743,931.43115,943.0205,943.0557,943.39264,957.05865,957.77386,957.1836,968.7483,966.8006,965.22577,963.8436,973.6553,971.4481,971.55176,981.9535,982.152,982.413,nan,nan,nan,nan,2763.6472,nan,nan,2830.9465,2849.2473,2852.6873,2857.7822,2857.3433,2852.9907,2847.7444,2854.7466,2844.0872,2849.448,2874.3665,2867.8726,2869.6104,2866.6914,2873.0063,2864.3066,2865.2493,2865.154,2864.9287,2865.061,2873.652,2871.1035,2867.6294,2873.5178,2873.6912,2873.8662,2873.6855,2875.441,2874.7993,2875.2878,2876.7407,2876.524,2877.8972,2879.2378,2879.3477,2879.0884,2878.6401,2875.2183,2875.2305,2875.9668,2877.6216,2874.9067,2874.1868,2879.3157,2901.8386,3028.716,3013.9878,3182.0986,3211.9897,3223.7058,3254.6191,3253.0342,3252.85,3243.6763,3248.0984,3244.4663,3228.9258,3271.7078,3248.8374,3243.735,3290.4946,3304.7686,3277.7227,3333.8748,3328.6328,3301.8982,3308.4763,3393.7202,3332.9756,3336.1165
2644.8245,2644.8328,2644.834,2644.8325,2645.689,2645.6357,2645.6873,2647.6038,2647.6077,2647.5718,2650.3528,2650.384,2650.5137,2650.4302,2654.5283,2656.2925,2657.064,2665.936,2664.7917,2664.1267,2674.5012,2675.3389,2674.895,2674.3489,2685.175,2685.3457,2685.0723,2695.463,2696.4927,2697.508,2704.661,2703.5554,2704.7715,2706.227,2705.9656,2704.667,2700.593,2707.0361,2706.5044,2706.0452,2713.3066,2710.7554,2711.143,2708.452,2715.0168,2715.5044,2715.6707,2717.4897,2717.249,2717.0225,2718.1265,2717.9343,2717.8213,2717.7166,2720.391,2720.3022,2720.438,2715.3728,2718.1025,2720.7502,2700.8145,2674.622,2679.1184,2684.2385,2686.475,2680.3125,2675.6025,2688.1887,2685.179,2684.6133,2702.103,2702.103,2702.103,2702.103,nan,nan,nan,nan,nan,nan,nan,nan,nan,nan,nan,nan,nan,nan,nan,nan,nan,nan,nan,nan,nan,nan,nan,nan,nan,nan,nan,nan,nan,nan,nan,nan,nan,nan,nan,nan,nan,nan,nan,nan,906.2075,906.2075,906.2075,888.39185,888.0856,892.03156,883.9222,884.23114,885.4949,887.0914,879.0667,879.6665,880.4074,874.66223,875.0073,875.3679,870.81854,870.86035,870.8197,870.86707,868.55286,868.5898,868.6743,867.0345,867.0727,867.1137,865.96594,865.9727,865.97363,865.97614,864.89886,864.8733,864.8522,864.84204,864.82086,864.81934,865.5161,865.4767,865.4379,865.415,866.66974,866.6677,866.6605,867.8341,867.83026,867.8302,869.2266,869.22974,869.23206,869.24133,870.85376,870.8499,870.8675,872.6679,872.656,872.6488,874.52484,874.5263,874.5148,874.50995,876.5673,876.5361,876.48895,878.3677,878.36304,878.41614,880.4712,880.49036,880.5152,880.51874,882.4966,882.49194,882.4652,884.959,884.9555,884.9478,887.83026,887.821,887.86176,887.82794,891.03375,891.037,891.0228,893.8703,893.8656,893.8517,896.6102,896.59125,896.5929,896.5961,899.63336,899.67975,899.6688,902.47437,902.4844,902.4793,904.9998,904.9951,904.98615,904.9898,907.0399,907.0302,907.03217,909.30316,909.30365,909.26434,912.0433,911.98926,911.9286,911.8234,915.987,915.8156,915.80695,921.99054,921.9451,921.9985,931.0712,931.14557,931.3213,931.4429,942.81006,942.92053,943.30817,957.09937,958.06,957.383,969.0927,967.08154,965.2331,963.80536,973.7511,971.56165,971.64874,981.987,982.18896,982.4433,nan,nan,nan,nan,nan,2884.2397,2860.996,2866.4165,2868.38,2867.2373,2860.4172,2857.1091,2858.9282,2839.0195,2843.5942,2843.9568,2863.1624,2875.6626,2872.4717,2871.942,2872.5896,2872.3232,2863.9592,2863.8975,2865.1453,2865.1511,2865.137,2873.818,2870.5005,2867.8684,2873.6208,2873.8079,2873.9182,2873.8682,2875.5676,2874.8257,2875.2778,2876.6938,2876.5627,2878.0078,2879.225,2879.2607,2878.9954,2878.5515,2875.0757,2874.997,2876.042,2877.0144,2874.9265,2874.2957,2879.3743,2901.2676,3037.0063,3020.433,3177.5227,3185.8115,3196.1377,3226.2837,3228.3699,3233.4116,3234.2468,3236.4302,3225.2002,3220.8997,3256.4043,3224.8904,3220.799,3345.599,3381.3682,3328.8442,3321.098,3324.418,3295.4521,3314.4265,3429.9026,3421.2568,3396.4624
2644.8274,2644.8347,2644.8423,2644.8457,2645.7095,2645.665,2645.7021,2647.6384,2647.528,2647.5503,2650.3872,2650.4104,2650.5903,2650.5256,2655.102,2656.4714,2656.7974,2665.436,2664.3572,2663.94,2674.6045,2675.396,2674.8066,2674.2239,2684.9016,2685.4421,2685.1357,2695.656,2696.2434,2697.6785,2704.6868,2703.3855,2705.2346,2706.3794,2706.7224,2704.5999,2700.245,2706.9634,2706.4487,2706.0125,2713.1555,2710.2693,2710.075,2708.478,2715.3818,2715.606,2715.6838,2717.291,2716.9905,2716.9558,2718.2769,2718.017,2717.782,2717.6694,2720.3284,2720.3577,2720.4897,2716.073,2718.4338,2720.8083,2696.951,2674.8345,2679.6223,2684.2192,2686.0698,2680.5842,2675.595,2687.727,2685.1074,2684.603,2702.103,2702.103,2702.103,2702.103,nan,nan,nan,nan,nan,nan,nan,nan,nan,nan,nan,nan,nan,nan,nan,nan,nan,nan,nan,nan,nan,nan,nan,nan,nan,nan,nan,nan,nan,nan,nan,nan,nan,nan,nan,nan,nan,nan,nan,nan,906.2075,906.2075,906.2075,888.9301,888.7235,892.01965,884.19916,884.57715,885.73645,887.21466,879.31506,879.9705,880.7129,874.779,875.2272,875.3628,870.9874,870.9129,870.9046,870.99493,868.51245,868.638,868.6551,867.071,867.10504,867.15405,865.9802,865.99756,866.0278,866.03925,864.97375,864.8957,864.8596,864.8431,864.8267,864.8152,865.52325,865.5044,865.4453,865.4241,866.67206,866.6628,866.66785,867.8458,867.8551,867.8575,869.2364,869.2353,869.2459,869.24725,870.85596,870.84753,870.85333,872.6624,872.6648,872.66064,874.5296,874.5282,874.5194,874.5312,876.5878,876.5702,876.55176,878.4365,878.4407,878.4664,880.49274,880.50616,880.51184,880.51013,882.48206,882.47144,882.4556,884.95337,884.9388,884.94446,887.8344,887.8241,887.88544,887.83795,891.03015,891.063,891.0353,893.8676,893.8657,893.8493,896.60016,896.58453,896.6014,896.6076,899.6443,899.658,899.67,902.49274,902.4908,902.4828,904.9974,904.98425,904.9929,904.99426,907.03503,907.0332,907.042,909.31683,909.33563,909.27747,912.06366,912.002,911.9423,911.85736,916.03186,915.8768,915.86145,922.00867,921.9456,921.9649,931.01056,931.0553,931.17,931.33984,942.84314,943.2867,943.5091,957.3157,958.2148,957.4023,968.76654,966.9939,965.1145,963.7387,973.7862,971.6104,971.7399,982.09265,982.22687,982.3503,nan,nan,nan,nan,2889.8848,2808.3406,2807.9695,2831.9573,2831.4153,2827.0417,2835.6177,2834.9626,2832.96,2827.9114,2852.8433,2848.011,2861.6516,2871.3042,2874.7292,2872.276,2874.1667,2870.2212,2863.5337,2862.9011,2865.3818,2865.4998,2865.0925,2873.8125,2870.6816,2867.8105,2873.7466,2873.7917,2873.853,2873.8284,2875.489,2874.6746,2875.193,2876.7095,2876.729,2877.8748,2878.789,2879.0105,2878.7234,2878.474,2874.9622,2875.146,2875.8374,2876.9136,2874.4897,2874.3474,2878.7493,2900.8247,3040.0322,3034.4534,3173.097,3173.3064,3160.7139,3191.023,3207.3916,3212.9917,3227.8452,3222.2998,3217.785,3223.5789,3236.7532,3237.3696,3232.1592,3333.7305,3351.785,3328.89,3264.9246,3339.347,3314.8354,3318.1726,3350.9448,3353.443,3356.4414
2645.2834,2645.2793,2645.2695,2645.2493,2645.4458,2645.4517,2645.424,2646.6587,2646.5789,2646.6233,2648.7056,2648.707,2648.7737,2648.5996,2652.1536,2653.8674,2653.8958,2662.1833,2661.3752,2661.082,2671.9468,2672.8533,2672.1128,2671.166,2681.697,2681.9048,2682.1167,2691.3286,2691.8672,2692.8037,2698.434,2697.784,2699.0374,2700.3057,2698.8738,2696.9185,2694.5056,2702.433,2702.0396,2701.4126,2706.998,2704.6272,2704.0308,2703.485,2708.1597,2708.154,2708.2463,2708.8552,2708.7808,2708.7283,2710.2417,2710.0635,2709.8164,2709.603,2713.2322,2713.3828,2713.3848,2706.8713,2709.6572,2713.02,2673.6687,2658.055,2660.238,2660.9907,2678.7214,2673.2725,2661.3372,2678.681,2683.2397,2684.0715,nan,nan,nan,nan,nan,nan,nan,nan,nan,nan,nan,nan,nan,nan,nan,nan,nan,nan,nan,nan,nan,nan,nan,nan,nan,nan,nan,nan,nan,nan,nan,nan,nan,nan,nan,nan,nan,nan,nan,nan,nan,nan,nan,nan,902.443,901.922,901.7139,885.20056,884.94507,888.1477,879.96826,880.32263,881.6696,883.2739,875.5807,876.19055,876.7557,871.389,871.6685,871.8443,867.96277,868.00867,868.04614,868.0973,866.1744,866.2308,866.2679,865.0396,865.07635,865.0538,864.17017,864.2066,864.19836,864.2083,863.36896,863.3333,863.25543,863.4345,863.4388,863.4383,864.38165,864.3444,864.341,864.2994,865.6768,865.67017,865.6721,867.00854,867.02893,867.02106,868.41705,868.4154,868.4123,868.4144,869.9908,869.98755,869.9876,871.7649,871.7657,871.76733,873.66425,873.65234,873.64124,873.64594,875.7218,875.7018,875.7089,877.58154,877.5952,877.5933,879.62177,879.6304,879.62604,879.634,881.56287,881.54626,881.546,884.04913,884.0458,884.04694,886.84875,886.845,886.94604,886.91394,890.20435,890.1855,890.14526,893.00616,892.998,892.9881,895.79333,895.7884,895.7861,895.79285,898.78076,898.7938,898.78796,901.67126,901.6734,901.67804,904.302,904.2977,904.2998,904.3012,906.5086,906.52997,906.5423,908.9541,908.9531,908.9371,911.7582,911.6912,911.61945,911.5214,915.26,915.1226,915.0822,920.645,920.5381,920.5951,928.5575,928.6225,928.8452,929.10046,940.9555,941.5702,942.0532,955.547,956.215,955.27814,966.97675,964.8557,963.0459,961.88904,971.3911,968.7278,968.9917,981.73615,981.6733,981.5515,nan,nan,nan,nan,nan,2889.8992,2889.8992,2890.1506,2890.153,2890.1045,2876.9915,2887.0952,2889.8826,2890.0889,2871.101,2865.032,2887.127,2882.2283,2885.0317,2881.7463,2874.332,2877.6426,2873.236,2864.2126,2863.888,2863.3887,2863.0913,2868.7969,2866.5325,2865.1233,2868.5674,2868.4324,2868.6282,2868.3506,2870.2595,2869.7983,2870.0996,2871.5303,2871.528,2872.912,2872.642,2872.5896,2872.0908,2872.42,2867.9626,2868.13,2868.8862,2871.733,2867.8315,2866.244,2876.352,2914.327,3039.4167,3044.0913,3156.4995,3161.843,3156.6558,3142.0344,3147.7173,3151.107,3190.3633,3177.5415,3186.0989,3216.4812,3274.7039,3284.7556,3233.818,3280.8308,3274.812,3261.099,3296.0547,3312.6465,3326.63,3322.3877,3338.141,3360.34,3344.446
2645.2893,2645.275,2645.264,2645.2478,2645.4507,2645.451,2645.4084,2646.6414,2646.548,2646.6128,2648.711,2648.7117,2648.7427,2648.4731,2651.963,2653.9153,2653.919,2661.9531,2661.4187,2661.1165,2672.0813,2672.8564,2672.1077,2671.1567,2681.6577,2681.7676,2681.3787,2691.0122,2692.354,2692.671,2698.5198,2697.8616,2699.2166,2699.6238,2698.87,2696.263,2694.5398,2702.484,2701.982,2701.2754,2706.931,2704.4224,2703.5198,2703.4785,2708.2026,2708.228,2708.2073,2708.929,2708.8118,2708.7852,2710.2827,2710.077,2709.8376,2709.6958,2713.2908,2713.3015,2713.5037,2707.4824,2710.1797,2713.669,2666.7349,2655.7483,2655.9082,2656.2764,2674.1565,2657.1624,2653.1333,2674.7935,2678.8228,2681.2144,nan,nan,nan,nan,nan,nan,nan,nan,nan,nan,nan,nan,nan,nan,nan,nan,nan,nan,nan,nan,nan,nan,nan,nan,nan,nan,nan,nan,nan,nan,nan,nan,nan,nan,nan,nan,nan,nan,nan,nan,nan,nan,nan,nan,902.3797,902.3542,902.2252,885.3088,885.07166,888.36053,880.081,880.5332,881.84406,883.6079,875.8442,876.3792,876.7877,871.3509,871.606,871.6003,867.8554,867.8979,867.9641,868.0368,866.14966,866.18536,866.21765,864.98254,864.9981,865.01013,864.14905,864.1683,864.1356,864.12103,863.29,863.25946,863.2515,863.4182,863.4391,863.4396,864.34625,864.3313,864.32556,864.3204,865.70135,865.6874,865.68243,867.01447,867.00854,867.0273,868.4239,868.41595,868.4128,868.4168,869.9872,869.9872,869.9873,871.7757,871.7747,871.77386,873.6571,873.6516,873.64764,873.6409,875.7046,875.6917,875.6935,877.5753,877.57886,877.5871,879.5954,879.61536,879.6235,879.61615,881.55664,881.5537,881.547,884.0508,884.0463,884.0453,886.8557,886.8375,886.8991,886.90765,890.1834,890.15283,890.1309,893.0024,892.99567,892.9893,895.79425,895.7823,895.778,895.7839,898.77155,898.7757,898.7861,901.6662,901.6787,901.6787,904.30994,904.30804,904.2996,904.3018,906.5182,906.5145,906.54016,908.94604,908.9527,908.9255,911.74445,911.6886,911.6337,911.5366,915.24835,915.12585,915.07715,920.6071,920.51404,920.53217,928.4832,928.5619,928.6982,929.0803,940.98016,941.6032,942.2402,955.489,956.4172,955.27844,966.8783,964.72,962.828,961.6931,971.2774,968.7868,968.92084,981.7087,981.696,981.6,nan,nan,nan,nan,nan,2889.8992,2889.8992,2890.1487,2890.1482,2890.1023,2877.4563,2883.976,2890.072,2890.0864,2868.8096,2864.868,2891.2412,2885.7827,2886.727,2883.315,2877.9006,2881.458,2874.047,2864.1174,2863.8213,2863.493,2863.121,2868.5183,2866.0647,2865.0469,2868.5222,2868.3804,2868.5466,2868.2395,2869.9546,2869.697,2869.7163,2871.4927,2871.6702,2872.8735,2872.4531,2872.396,2871.6663,2872.4397,2868.0403,2867.9097,2868.9136,2871.1938,2867.7522,2866.1978,2875.422,2913.8013,3028.3857,3030.0093,3158.8083,3174.6238,3149.0027,3129.3066,3143.0657,3148.9202,3171.6116,3169.2405,3161.9387,3195.8176,3264.9363,3252.4292,3232.2522,3275.3066,3263.1013,3262.5344,3290.725,3304.1965,3306.6848,3293.357,3352.8125,3352.3755,3338.6624
2645.2898,2645.2795,2645.2695,2645.2527,2645.4485,2645.4314,2645.3767,2646.623,2646.526,2646.6152,2648.7212,2648.724,2648.7573,2648.5024,2652.124,2653.6323,2653.94,2661.8027,2661.3794,2661.226,2671.8877,2672.8176,2672.275,2671.2222,2681.494,2681.289,2681.5364,2691.2725,2692.1812,2692.968,2698.439,2697.638,2698.5552,2699.174,2698.8237,2696.0159,2694.696,2702.483,2701.9844,2701.1477,2706.6885,2704.2527,2703.2795,2703.373,2708.1948,2708.2092,2708.024,2709.0325,2709.0547,2708.8142,2710.362,2710.0667,2709.8127,2709.5896,2713.1907,2713.2415,2713.4578,2709.2034,2711.668,2711.613,2663.458,2655.648,2656.2036,2656.1807,2672.9668,2648.8271,2651.3105,2675.2607,2675.1135,2673.896,nan,nan,nan,nan,nan,nan,nan,nan,nan,nan,nan,nan,nan,nan,nan,nan,nan,nan,nan,nan,nan,nan,nan,nan,nan,nan,nan,nan,nan,nan,nan,nan,nan,nan,nan,nan,nan,nan,nan,nan,nan,nan,nan,nan,902.4882,902.35254,902.2773,885.8961,885.6985,888.4958,880.43567,880.88354,882.0798,883.7389,876.02094,876.5614,876.9554,871.4291,871.5664,871.64386,867.8894,867.839,867.8723,867.97064,866.09766,866.1845,866.2208,864.91595,864.96466,864.97845,864.0942,864.0873,864.0624,864.02423,863.2125,863.2084,863.2311,863.40265,863.4303,863.43085,864.3688,864.3386,864.3394,864.31995,865.6961,865.6822,865.68396,867.0209,867.0203,867.02716,868.40985,868.41473,868.40967,868.41595,869.9902,869.993,869.9907,871.768,871.7743,871.773,873.6541,873.65106,873.6394,873.6345,875.696,875.69,875.6878,877.5802,877.5794,877.5816,879.60187,879.6181,879.6228,879.6207,881.5534,881.5477,881.53986,884.0474,884.04474,884.03705,886.83936,886.8744,886.8729,886.90466,890.13837,890.13074,890.1203,893.0016,892.99646,892.9871,895.79407,895.7761,895.7769,895.77795,898.7726,898.77466,898.77655,901.66925,901.68195,901.6783,904.30963,904.30005,904.2971,904.30084,906.5083,906.532,906.5271,908.9519,908.96234,908.9387,911.74835,911.7023,911.645,911.56335,915.34015,915.1868,915.08734,920.6601,920.57275,920.54803,928.4597,928.45703,928.6402,929.0208,941.09186,941.64606,942.1364,955.4832,956.13806,954.9865,966.6362,964.4521,962.73724,961.661,971.2103,968.64935,968.7672,981.7489,981.6546,981.5955,nan,nan,nan,nan,nan,2889.899,2889.886,2885.269,2883.2158,2887.139,2876.5422,2879.946,2889.1099,2889.9778,2861.8765,2873.9263,2889.857,2886.0945,2886.3652,2885.8777,2878.4905,2881.8005,2871.6165,2863.9487,2863.8918,2863.5833,2863.163,2868.4211,2865.6345,2865.1619,2868.1538,2868.358,2868.4912,2868.3108,2870.0679,2869.7346,2869.6536,2871.8206,2871.9658,2872.833,2872.5173,2872.4358,2871.4763,2872.4824,2868.2607,2868.1707,2869.0198,2870.4248,2867.6377,2866.0718,2876.0708,2914.1135,3028.3108,3031.5215,3159.4053,3190.1182,3165.9373,3134.0322,3131.7964,3140.7698,3154.462,3166.3994,3146.5703,3226.4282,3308.7305,3196.556,3239.53,3265.7593,3267.4565,3232.8286,3289.9722,3323.1118,3330.4136,3295.9617,3349.7878,3342.4617,3331.2358
2646.2456,2646.234,2646.2195,2646.1934,2645.6267,2645.6548,2645.6077,2645.9858,2645.9482,2645.9897,2647.4756,2647.504,2647.6372,2647.3882,2650.3079,2651.4565,2652.1504,2659.5532,2659.302,2659.581,2669.905,2670.7583,2670.0571,2669.1155,2679.106,2678.8062,2679.012,2688.5432,2689.2585,2689.721,2693.784,2693.2231,2694.1682,2694.4612,2694.9185,2692.4746,2691.2283,2698.3433,2697.877,2696.8713,2700.7268,2699.6982,2698.1567,2698.4885,2701.0742,2700.7874,2700.5874,2700.8704,2701.0007,2700.7764,2702.1108,2701.8164,2701.4478,2701.1763,2704.0452,2704.5847,2704.9744,2699.2202,2701.1038,2697.744,2640.2644,2634.4866,2635.3809,2635.37,2657.5142,2624.6846,2630.1926,2663.7417,2663.7417,2663.7417,nan,nan,nan,nan,nan,nan,nan,nan,nan,nan,nan,nan,nan,nan,nan,nan,nan,nan,nan,nan,nan,nan,nan,nan,nan,nan,nan,nan,nan,nan,nan,nan,nan,nan,nan,nan,nan,nan,nan,nan,nan,nan,nan,nan,899.8935,898.95496,898.3971,883.1197,882.89557,885.46454,877.3012,877.7317,878.92175,880.47723,873.3816,873.8452,874.1004,869.01465,869.16565,869.18677,865.9035,865.8936,865.8729,866.0037,864.25885,864.2385,864.2812,863.20123,863.23553,863.2501,862.58496,862.57947,862.5463,862.4992,861.94714,861.9817,862.0199,862.2293,862.25714,862.272,863.3024,863.26935,863.253,863.2575,864.71075,864.6908,864.693,866.2836,866.29535,866.2757,867.69354,867.6856,867.6837,867.68976,869.17145,869.1618,869.16315,870.98676,870.9871,870.98096,872.8819,872.87195,872.8714,872.86163,874.9143,874.9132,874.9221,876.7797,876.7837,876.78467,878.8553,878.85236,878.85364,878.8497,880.80396,880.79926,880.811,883.3107,883.29205,883.2826,886.1467,886.1633,886.17145,886.18353,889.5354,889.52716,889.5195,892.445,892.4496,892.4393,895.26965,895.2528,895.2474,895.2522,898.2796,898.2894,898.2919,901.2447,901.2513,901.26086,903.8594,903.85974,903.8591,903.8578,906.073,906.0871,906.0999,908.5292,908.5221,908.4956,911.20667,911.1174,911.0882,911.0177,914.329,914.2194,914.1495,919.21204,919.1035,919.0361,926.5435,926.45734,926.60034,926.88196,938.7473,939.2175,939.7013,952.8243,953.47766,952.39087,964.0783,961.96295,960.2103,958.959,968.8696,966.39777,966.6263,979.78546,979.9196,980.0228,nan,nan,nan,nan,nan,2901.8838,2900.2974,2899.4873,2899.8882,2900.7034,2900.8962,2901.5227,2900.0872,2898.634,2889.9473,2891.3596,2894.014,2890.1177,2889.6726,2889.2166,2884.7595,2886.5754,2875.072,2865.385,2860.295,2859.9856,2859.816,2862.7214,2861.2297,2861.24,2862.44,2862.563,2862.6882,2862.5378,2864.8547,2864.5361,2864.3457,2866.877,2866.2856,2867.1067,2867.346,2867.3252,2866.5774,2867.3672,2862.9802,2863.1338,2863.8206,2868.106,2864.3103,2861.3438,2877.5403,2932.9885,3034.289,3048.254,3128.546,3127.48,3118.8738,3132.36,3130.567,3130.1504,3157.4019,3137.1968,3165.3735,3183.1406,3223.8865,3175.4744,3204.8745,3243.3618,3239.224,3214.0173,3268.1755,3295.0166,3291.8464,3279.6182,3305.3687,3303.5896,3300.8813
2646.265,2646.2463,2646.229,2646.1804,2645.6357,2645.6511,2645.5835,2645.9937,2645.9758,2646.0095,2647.483,2647.5364,2647.652,2647.28,2650.4834,2651.687,2651.9773,2659.6255,2659.3923,2659.723,2669.845,2670.3,2669.775,2668.9448,2678.847,2678.8264,2679.7947,2688.547,2688.7776,2689.824,2693.8386,2693.2495,2694.1262,2694.579,2694.984,2691.9648,2691.4165,2698.2927,2697.8352,2696.6785,2700.6438,2699.2817,2698.0972,2698.554,2701.2488,2700.881,2700.6558,2701.1218,2700.9631,2700.8323,2702.235,2701.9624,2701.7021,2701.289,2704.3225,2704.836,2705.1318,2699.7605,2701.2239,2698.8691,2638.1523,2637.5994,2638.5874,2638.558,2656.931,2626.905,2635.878,2663.7417,2663.7417,2663.7417,nan,nan,nan,nan,nan,nan,nan,nan,nan,nan,nan,nan,nan,nan,nan,nan,nan,nan,nan,nan,nan,nan,nan,nan,nan,nan,nan,nan,nan,nan,nan,nan,nan,nan,nan,nan,nan,nan,nan,nan,nan,nan,nan,nan,899.9791,899.2905,899.0083,883.4167,883.168,885.8139,877.5209,877.9464,879.1816,880.777,873.5589,873.98,874.1636,869.0421,869.1461,869.16797,865.9329,865.77704,865.8684,865.9718,864.2403,864.30634,864.2686,863.17957,863.21204,863.22046,862.56305,862.5591,862.5441,862.4981,861.94714,861.9747,862.01434,862.2187,862.24,862.2546,863.3213,863.272,863.24915,863.22534,864.71735,864.7149,864.6763,866.2709,866.2746,866.2711,867.68475,867.68384,867.68665,867.69073,869.1732,869.16833,869.17285,870.98895,870.9791,870.9741,872.8695,872.8619,872.8467,872.8429,874.9092,874.91174,874.9215,876.78705,876.7873,876.7993,878.8626,878.8538,878.85077,878.8558,880.799,880.7933,880.7971,883.2986,883.2966,883.26935,886.11884,886.148,886.1493,886.14935,889.51074,889.53827,889.52826,892.4582,892.4559,892.4406,895.26575,895.2477,895.24554,895.25,898.26685,898.2813,898.3036,901.2354,901.2719,901.26044,903.8628,903.86304,903.8576,903.854,906.0833,906.0764,906.0759,908.50885,908.52435,908.51447,911.2308,911.19196,911.15027,911.05524,914.35596,914.2565,914.19086,919.2577,919.0553,919.0095,926.47107,926.48724,926.52246,926.8496,938.552,939.0419,939.65015,952.79474,953.34924,952.40247,964.1198,961.96075,960.31506,959.2254,968.98773,966.3805,966.7184,979.64996,979.7141,980.00885,nan,nan,nan,nan,nan,2900.165,2898.422,2897.0327,2898.3306,2898.9546,2894.1106,2893.857,2891.3071,2887.44,2894.687,2894.1433,2891.68,2889.0903,2889.6777,2891.46,2885.341,2886.7942,2874.9922,2865.3918,2860.32,2860.0476,2859.956,2862.6467,2861.334,2861.251,2862.3948,2862.4668,2862.6475,2862.29,2864.725,2864.7246,2864.1724,2866.5642,2866.4631,2867.3047,2867.3257,2867.3274,2866.7366,2867.5107,2862.8198,2863.1985,2863.9502,2867.8306,2864.2393,2861.4194,2875.4363,2935.0657,3030.2402,3056.3594,3129.8525,3129.7478,3120.4524,3130.173,3127.5078,3127.173,3154.6885,3172.0308,3177.2263,3172.1057,3205.9844,3205.8086,3203.6292,3231.8032,3231.1782,3210.356,3293.8113,3289.7798,3295.6228,3294.9448,3304.9417,3304.3096,3301.7988
2646.2744,2646.2512,2646.2305,2646.2183,2645.6147,2645.6353,2645.5676,2646.018,2645.9917,2646.012,2647.498,2647.5747,2647.6997,2647.4856,2651.1995,2651.7107,2651.8364,2659.5398,2659.2046,2659.2917,2669.4648,2669.9216,2669.475,2668.8547,2679.2373,2679.3875,2680.089,2687.8477,2688.6533,2690.1187,2693.815,2693.3625,2694.3972,2694.0554,2694.8638,2691.7236,2691.5032,2698.208,2697.7266,2696.6846,2700.5525,2699.1875,2698.4868,2698.3323,2701.2205,2700.8132,2700.6714,2701.2349,2700.8777,2700.8706,2702.1167,2702.0076,2701.7683,2701.3574,2704.65,2704.925,2705.3113,2700.2131,2702.1414,2697.6252,2641.4072,2640.9617,2643.2017,2643.1118,2656.0398,2641.2773,2642.633,2663.7417,2663.7417,2663.7417,nan,nan,nan,nan,nan,nan,nan,nan,nan,nan,nan,nan,nan,nan,nan,nan,nan,nan,nan,nan,nan,nan,nan,nan,nan,nan,nan,nan,nan,nan,nan,nan,nan,nan,nan,nan,nan,nan,nan,nan,nan,nan,nan,nan,899.8285,899.5897,899.5448,883.6468,883.435,886.04016,877.7294,878.1128,879.32,880.9335,873.61127,874.09814,874.27625,869.0765,869.1268,869.0831,865.8868,865.86975,865.9069,866.0262,864.288,864.3121,864.32385,863.2359,863.25336,863.24255,862.5653,862.54626,862.5178,862.4824,861.9395,861.9562,861.9748,862.1897,862.21985,862.25507,863.30347,863.3121,863.23285,863.2117,864.7023,864.67395,864.69226,866.2599,866.25903,866.25616,867.68207,867.68933,867.7007,867.69916,869.1803,869.1658,869.1609,870.9798,870.97815,870.9711,872.8659,872.847,872.83136,872.8361,874.8927,874.9034,874.91534,876.7787,876.7848,876.8004,878.85803,878.8533,878.84955,878.8417,880.79584,880.78894,880.7868,883.3055,883.2879,883.28107,886.1154,886.14594,886.1795,886.1696,889.53076,889.54285,889.5305,892.452,892.4527,892.4355,895.2623,895.22754,895.22577,895.2463,898.2839,898.28394,898.29156,901.24335,901.2787,901.2754,903.8609,903.8568,903.854,903.85486,906.0722,906.0715,906.0746,908.51263,908.505,908.51196,911.2597,911.2176,911.17676,911.0943,914.3893,914.2891,914.22034,919.2004,918.975,919.0079,926.43634,926.3732,926.46857,926.7409,938.3745,938.9225,939.51355,952.69824,953.52875,952.4979,964.26843,962.14923,960.54926,959.2382,969.1005,966.60583,966.8487,979.7415,979.72,979.91583,nan,nan,nan,nan,2846.6624,2900.123,2901.6194,2902.1533,2902.2427,2902.2073,2902.402,2902.022,2901.7517,2889.5962,2895.3503,2895.135,2889.2327,2888.6729,2890.8364,2892.814,2883.5447,2887.0981,2875.486,2865.3596,2860.3362,2860.049,2859.9473,2862.6836,2861.3762,2861.322,2862.5356,2862.4512,2862.571,2862.0508,2864.7803,2864.7886,2864.2898,2866.2612,2866.759,2867.3828,2867.5486,2867.4731,2866.7502,2867.5618,2863.04,2863.5334,2864.1526,2868.1956,2863.912,2861.6775,2878.3562,2937.3047,3035.747,3060.1064,3127.8035,3128.3591,3122.424,3129.0684,3127.7896,3128.9272,3155.058,3168.157,3168.8362,3172.079,3216.1565,3202.2969,3207.875,3220.5571,3231.265,3227.5413,3295.535,3305.1204,3307.7937,3306.9812,3308.828,3307.4048,3306.6494
2646.276,2646.2502,2646.2263,2646.233,2645.5999,2645.608,2645.5425,2646.0457,2646.0076,2646.011,2647.494,2647.5688,2647.6345,2647.4983,2651.465,2651.8867,2651.8105,2659.575,2659.2131,2659.2747,2669.443,2669.7341,2669.2283,2668.9304,2679.4087,2679.8174,2679.8447,2688.178,2689.3716,2689.7192,2693.8289,2693.8428,2694.7146,2692.854,2694.3823,2691.6013,2691.506,2698.1514,2697.451,2696.5144,2700.3223,2699.0427,2698.396,2698.1172,2701.0952,2700.8545,2700.737,2701.2412,2700.8362,2700.7678,2702.0833,2702.0125,2701.7305,2701.308,2704.864,2704.966,2705.4893,2701.3623,2704.3267,2698.3718,2636.524,2640.0686,2643.2007,2643.6206,2650.5317,2641.0608,2642.4307,2663.7417,2663.7417,2663.7417,nan,nan,nan,nan,nan,nan,nan,nan,nan,nan,nan,nan,nan,nan,nan,nan,nan,nan,nan,nan,nan,nan,nan,nan,nan,nan,nan,nan,nan,nan,nan,nan,nan,nan,nan,nan,nan,nan,nan,nan,nan,nan,nan,nan,899.7859,899.99255,900.0865,883.9598,883.7719,886.2686,877.757,878.05237,879.20807,880.8468,873.57513,874.01825,874.18195,869.0564,869.0832,869.148,865.8927,865.9017,865.9713,866.08496,864.33563,864.3827,864.3922,863.24567,863.25714,863.298,862.5828,862.5798,862.57367,862.5271,861.9995,862.0119,862.02014,862.17285,862.20544,862.244,863.2609,863.2432,863.20557,863.15656,864.68884,864.6483,864.6624,866.2485,866.24994,866.26526,867.69806,867.703,867.70245,867.702,869.1672,869.16156,869.1537,870.9722,870.97,870.9669,872.8645,872.85443,872.84656,872.8675,874.9111,874.92017,874.9089,876.77435,876.7796,876.7834,878.84015,878.85065,878.8485,878.8403,880.797,880.79565,880.792,883.316,883.2874,883.27277,886.1097,886.15936,886.2016,886.1994,889.5409,889.54645,889.52563,892.45184,892.44836,892.43744,895.2658,895.25055,895.2428,895.26697,898.2968,898.3019,898.2969,901.24896,901.2623,901.26733,903.8536,903.84717,903.8506,903.85034,906.0423,906.06384,906.06573,908.5071,908.532,908.5202,911.21783,911.179,911.14545,911.0842,914.3862,914.29706,914.23065,919.28455,919.1256,919.0426,926.43604,926.30206,926.4085,926.7053,938.3259,938.7859,939.4111,952.75,953.3654,952.2702,964.15216,962.0275,960.3765,959.3061,969.1032,966.55286,966.87506,979.941,979.98914,979.8919,nan,nan,nan,nan,2849.2239,2875.244,2881.6404,2895.7358,2896.2583,2891.3262,2900.0566,2899.4514,2896.1187,2892.9067,2895.953,2895.2158,2890.634,2890.3406,2891.2139,2891.3157,2882.81,2885.7412,2876.4583,2865.3047,2860.3303,2860.1052,2859.9597,2862.676,2861.4512,2861.3647,2862.7153,2862.6077,2862.4744,2862.2458,2865.0571,2864.8801,2864.5796,2866.1365,2866.9783,2867.5415,2867.6038,2867.5022,2866.7656,2867.5923,2863.2556,2863.7659,2864.4333,2868.5042,2863.7124,2861.8972,2887.594,2936.8699,3049.103,3070.2268,3124.4277,3126.2637,3119.5396,3126.7278,3125.9534,3124.2192,3137.762,3154.019,3163.378,3179.1846,3203.4343,3189.8293,3206.5486,3222.106,3241.0806,3247.7456,3283.019,3296.134,3296.0134,3295.8994,3303.7175,3302.195,3303.1511
2646.2202,2646.1936,2646.172,2646.1602,2644.9338,2645.0361,2644.9182,2644.7793,2644.767,2644.682,2645.4575,2645.5444,2645.601,2645.3381,2649.0728,2649.3608,2649.2021,2657.0327,2656.7952,2657.2212,2667.4739,2667.282,2666.6804,2666.3542,2676.7336,2676.9753,2677.1646,2685.9812,2687.359,2686.539,2690.9802,2691.3132,2692.2075,2689.6765,2691.4424,2688.3064,2688.1182,2693.336,2692.6003,2691.8835,2694.6274,2693.3293,2692.7104,2692.3284,2694.215,2693.9966,2693.854,2693.3547,2693.0374,2693.0308,2694.0803,2694.0496,2693.9397,2693.752,2694.8325,2695.504,2696.2476,2690.297,2694.9915,2685.0073,2611.8525,2614.3687,2617.2593,2619.0164,2605.62,2613.704,2616.4373,nan,nan,nan,nan,nan,nan,nan,nan,nan,nan,nan,nan,nan,nan,nan,nan,nan,nan,nan,nan,nan,nan,nan,nan,nan,nan,nan,nan,nan,nan,nan,nan,nan,nan,nan,nan,nan,nan,nan,nan,nan,nan,nan,nan,nan,nan,nan,896.53143,896.46313,896.4411,880.6142,880.4898,882.14984,874.708,874.9373,875.8375,877.06903,871.13556,871.45526,871.6399,867.1401,867.2406,867.2503,864.5353,864.565,864.6278,864.6633,863.08105,863.1153,863.1318,862.1776,862.1871,862.1853,861.48706,861.48676,861.477,861.463,861.08044,861.0861,861.0788,861.31256,861.291,861.3073,862.376,862.3552,862.3398,862.29425,863.8169,863.811,863.8174,865.37976,865.38904,865.4006,866.7911,866.7896,866.8,866.8003,868.2788,868.2684,868.26355,870.15735,870.1594,870.1596,872.1043,872.0887,872.1065,872.09155,874.17755,874.17236,874.1736,876.03394,876.02594,876.0098,878.16724,878.1626,878.1656,878.1634,880.1812,880.185,880.17505,882.66534,882.6471,882.6568,885.56836,885.61,885.6286,885.6527,889.1174,889.079,889.0757,892.1299,892.1277,892.11743,894.98206,894.9699,894.9703,894.974,897.8958,897.90186,897.9028,900.80585,900.8117,900.8066,903.3827,903.3767,903.37695,903.37634,905.6186,905.64886,905.66034,907.97565,908.0021,907.9909,910.51605,910.4667,910.4338,910.35333,913.728,913.6551,913.5785,918.45544,918.29297,918.2067,925.274,925.1445,925.20465,925.44696,936.2978,936.82294,937.2323,949.315,949.9341,949.0111,960.6906,958.2411,956.4882,955.7316,964.7292,961.41473,961.5858,978.84357,978.80273,978.9307,nan,nan,nan,nan,2821.5127,2821.5125,2821.5127,2879.771,2879.8435,2870.557,2898.162,2894.5667,2888.0715,2880.746,2895.346,2895.1775,2895.32,2894.9211,2894.8186,2893.988,2889.6882,2889.451,2883.5786,2867.094,2857.2727,2857.0544,2856.9785,2858.2637,2857.7297,2857.7136,2858.376,2858.3242,2858.045,2857.9482,2860.6658,2860.5264,2859.904,2861.5513,2862.0383,2862.374,2862.8945,2862.5557,2862.0151,2862.6802,2859.1177,2859.6138,2860.0789,2867.8118,2860.9883,2858.275,2901.545,2960.153,3049.2996,3066.9302,3124.0857,3107.8284,3090.958,3123.2808,3116.5437,3127.464,3153.9136,3147.816,3139.8833,3147.4915,3189.708,3192.0183,3197.8765,3212.9827,3227.9277,3211.9326,3284.0117,3291.6433,3292.2246,3291.7952,3293.1873,3296.665,3300.048
2646.2244,2646.1953,2646.1826,2646.16,2644.9966,2644.9883,2644.9045,2644.8076,2644.7808,2644.68,2645.459,2645.6172,2645.5383,2645.3486,2649.379,2649.2732,2648.943,2656.932,2656.8396,2657.4639,2667.8923,2667.1833,2666.6775,2666.1997,2676.5093,2676.98,2677.7136,2686.8113,2687.459,2686.7312,2690.7258,2691.4688,2691.9377,2689.244,2690.8816,2688.1765,2688.1404,2693.2417,2692.2703,2691.8103,2694.8115,2693.3967,2692.794,2692.4673,2694.1868,2693.9736,2693.7915,2693.3008,2693.0046,2693.0806,2694.1199,2694.0544,2693.973,2693.7925,2694.9456,2695.4976,2696.5203,2692.1948,2695.428,2685.6436,2610.1663,2612.5618,2616.1128,2624.9321,2605.7454,2611.592,2614.863,nan,nan,nan,nan,nan,nan,nan,nan,nan,nan,nan,nan,nan,nan,nan,nan,nan,nan,nan,nan,nan,nan,nan,nan,nan,nan,nan,nan,nan,nan,nan,nan,nan,nan,nan,nan,nan,nan,nan,nan,nan,nan,nan,nan,nan,nan,nan,896.52106,896.45166,896.4198,881.2759,881.14465,882.5463,874.7633,874.9525,875.8452,877.0767,871.0792,871.42633,871.6086,867.16656,867.2849,867.28613,864.56335,864.5858,864.6217,864.69543,863.0947,863.1239,863.1313,862.18976,862.1898,862.1951,861.4963,861.4967,861.49866,861.4921,861.0933,861.086,861.0855,861.3268,861.31995,861.3169,862.3746,862.3603,862.3298,862.3176,863.8323,863.7898,863.79877,865.4022,865.41205,865.4069,866.79205,866.7951,866.78796,866.7942,868.27716,868.2778,868.26245,870.1635,870.1632,870.1641,872.1027,872.09924,872.09546,872.11084,874.18726,874.1794,874.1764,876.03827,876.03345,876.0225,878.1576,878.15857,878.1564,878.15625,880.1823,880.18726,880.1712,882.6632,882.63916,882.6263,885.5905,885.6369,885.636,885.65027,889.076,889.0727,889.06555,892.1383,892.1286,892.12006,894.98096,894.9733,894.9743,894.98596,897.9023,897.9049,897.91046,900.8114,900.814,900.8128,903.3831,903.37933,903.37897,903.36554,905.6308,905.64935,905.64233,907.9802,908.02026,907.97076,910.4827,910.4649,910.44165,910.3583,913.73694,913.6473,913.5807,918.52637,918.38086,918.27875,925.29694,925.1404,925.1892,925.47546,936.2844,936.82837,937.26276,949.2165,949.93945,949.02936,960.4989,958.15125,956.4075,955.60693,964.70917,961.5872,961.7609,978.70984,978.75256,978.8262,nan,nan,nan,nan,2821.5127,2821.513,2821.5127,2880.5479,2880.6914,2870.6204,2897.147,2896.1558,2891.7363,2886.609,2897.7979,2897.949,2896.8298,2895.3809,2896.3708,2897.4343,2890.9836,2889.725,2885.073,2867.1943,2857.2253,2857.0615,2857.0654,2858.2417,2857.7742,2857.797,2858.449,2858.4587,2858.1262,2857.9685,2860.6743,2860.5586,2859.4768,2861.299,2862.149,2862.454,2862.8809,2862.3154,2862.0034,2862.6028,2859.283,2859.7957,2860.2227,2867.3867,2860.8394,2858.4106,2908.4497,2961.6323,3047.5117,3066.1526,3127.7651,3121.2407,3080.9944,3126.0706,3132.0662,3122.4805,3167.8572,3149.9956,3138.5586,3138.3853,3173.7458,3201.698,3202.4043,3231.505,3222.9055,3247.716,3291.3538,3290.4807,3292.4873,3292.9832,3298.8792,3298.9277,3300.8052
2646.2327,2646.2017,2646.1816,2646.153,2644.9954,2644.9414,2644.9402,2644.851,2644.823,2644.6472,2645.474,2645.604,2645.4224,2645.3806,2649.5215,2649.0693,2648.755,2656.8486,2656.898,2657.6204,2668.3096,2667.2485,2666.5166,2666.122,2676.702,2677.3232,2678.1938,2687.1685,2687.3833,2686.3271,2690.3677,2691.7014,2691.7695,2688.7998,2689.8508,2688.1724,2688.1077,2693.4148,2692.0571,2691.6125,2694.5217,2693.475,2692.8845,2692.6475,2694.018,2693.9397,2693.7283,2693.1619,2692.9111,2693.0437,2694.1577,2694.002,2693.8875,2693.7207,2694.843,2695.4207,2696.5625,2693.273,2695.7568,2686.7832,2609.5164,2609.832,2610.2844,2638.1616,2605.8025,2606.8027,2609.4036,nan,nan,nan,nan,nan,nan,nan,nan,nan,nan,nan,nan,nan,nan,nan,nan,nan,nan,nan,nan,nan,nan,nan,nan,nan,nan,nan,nan,nan,nan,nan,nan,nan,nan,nan,nan,nan,nan,nan,nan,nan,nan,nan,nan,nan,nan,nan,896.516,896.525,896.53467,881.8517,881.7199,882.7409,874.7452,874.8816,875.76306,876.99664,870.9809,871.35156,871.62805,867.1742,867.3341,867.3732,864.6025,864.5995,864.6447,864.69916,863.1025,863.139,863.1508,862.18823,862.2052,862.2096,861.5073,861.5014,861.49695,861.4867,861.08563,861.08435,861.0902,861.3223,861.31104,861.31146,862.364,862.3492,862.3609,862.34143,863.83374,863.8113,863.8333,865.3971,865.4217,865.4122,866.7908,866.7863,866.78503,866.79083,868.2825,868.2728,868.27313,870.1701,870.1644,870.1548,872.1063,872.11255,872.1117,872.0995,874.1854,874.17737,874.17206,876.0351,876.0293,876.01154,878.1561,878.1587,878.1567,878.1466,880.1805,880.18195,880.1789,882.68176,882.6509,882.64166,885.6004,885.61206,885.6275,885.6429,889.0829,889.0707,889.07306,892.13324,892.13116,892.1227,894.9877,894.9736,894.979,894.9854,897.90344,897.9071,897.90936,900.81726,900.8145,900.81085,903.3829,903.3794,903.3782,903.37616,905.6454,905.6348,905.6522,907.99384,907.9801,907.957,910.46655,910.4668,910.4357,910.36237,913.7589,913.65186,913.5983,918.5439,918.4178,918.2904,925.362,925.16675,925.2421,925.52313,936.3186,936.8453,937.23846,949.1455,949.7811,948.83545,960.3457,958.0002,956.34814,955.58795,964.70337,961.5946,961.7037,978.6551,978.67645,978.73474,nan,nan,nan,nan,2821.5127,2821.5125,2821.5127,2880.8147,2880.8667,2871.329,2898.904,2898.7976,2894.3713,2889.616,2899.0173,2898.8494,2897.641,2895.0776,2895.8748,2897.304,2890.9336,2888.4192,2885.9287,2867.8606,2857.2466,2857.073,2857.035,2858.2505,2857.767,2857.7822,2858.4827,2858.4556,2858.167,2858.0845,2860.6758,2860.5928,2859.538,2861.251,2862.1292,2862.5703,2862.8506,2862.3748,2861.9573,2862.5723,2859.4697,2859.9531,2860.3425,2867.3489,2860.7703,2858.54,2915.4907,2986.6821,3039.4763,3070.121,3128.2598,3124.7441,3098.2913,3130.333,3131.1626,3118.4146,3145.97,3164.005,3145.7146,3156.019,3185.8728,3195.2761,3202.0862,3235.5703,3233.296,3253.9119,3292.4531,3292.3071,3293.249,3291.9543,3302.477,3301.2092,3298.3213
2646.2373,2646.1995,2646.1836,2646.1606,2645.0168,2644.9187,2644.9805,2644.8616,2644.732,2644.635,2645.4797,2645.6238,2645.3784,2645.3564,2649.4236,2648.9714,2648.7659,2656.8152,2656.9797,2657.991,2668.3496,2667.0288,2666.494,2666.4514,2676.8389,2677.2786,2678.212,2687.2932,2686.5256,2686.042,2690.6553,2691.9814,2691.544,2688.7166,2689.2559,2688.201,2688.0737,2693.3435,2691.992,2691.496,2694.125,2693.4075,2693.222,2692.747,2693.8247,2693.8855,2693.6724,2692.9277,2692.8994,2693.08,2694.1414,2693.9724,2693.8313,2693.6401,2694.6912,2695.5466,2696.539,2694.3025,2696.0835,2686.6963,2610.6328,2610.3057,2615.2605,2651.8203,2606.1072,2608.7815,2609.6362,nan,nan,nan,nan,nan,nan,nan,nan,nan,nan,nan,nan,nan,nan,nan,nan,nan,nan,nan,nan,nan,nan,nan,nan,nan,nan,nan,nan,nan,nan,nan,nan,nan,nan,nan,nan,nan,nan,nan,nan,nan,nan,nan,nan,nan,nan,nan,896.4902,896.7448,896.8029,882.09033,881.9473,882.5926,874.6057,874.62396,875.56885,876.7571,870.8314,871.2417,871.5793,867.1843,867.36523,867.4311,864.6081,864.6001,864.65186,864.7001,863.10815,863.14343,863.1485,862.19855,862.2271,862.2118,861.51544,861.5024,861.50366,861.48944,861.09204,861.0951,861.10016,861.34064,861.31036,861.32684,862.3636,862.39435,862.3902,862.35114,863.8533,863.839,863.8365,865.3978,865.40466,865.3994,866.7818,866.78827,866.7875,866.7885,868.28107,868.27594,868.2768,870.16785,870.1611,870.1568,872.0985,872.10455,872.11816,872.1178,874.18616,874.18097,874.17065,876.03143,876.02985,876.03174,878.15894,878.1499,878.1553,878.14856,880.1775,880.17834,880.17444,882.6515,882.6443,882.647,885.61707,885.6004,885.6202,885.6378,889.07776,889.08435,889.0835,892.1458,892.1457,892.1272,894.98663,894.96625,894.9687,894.9798,897.90344,897.9061,897.9153,900.81165,900.82086,900.8131,903.38574,903.3803,903.37805,903.3775,905.6409,905.64435,905.63403,907.96844,907.9407,907.9458,910.42584,910.4483,910.4433,910.3681,913.7521,913.67114,913.60065,918.5641,918.39307,918.2728,925.39905,925.25433,925.3117,925.56256,936.3165,936.7437,937.10944,949.02344,949.5604,948.67645,960.40607,958.01843,956.35486,955.65735,964.75696,961.53326,961.6329,978.71893,978.7156,978.73474,nan,nan,nan,nan,2821.513,2821.5127,2821.5127,2877.2698,2878.8303,2872.1567,2899.9563,2899.269,2896.8726,2891.628,2898.889,2898.58,2897.6775,2895.0244,2897.3835,2897.5894,2890.689,2888.1465,2886.0564,2868.9426,2857.256,2857.0999,2857.0068,2858.198,2857.7825,2857.7786,2858.4333,2858.402,2858.2212,2858.214,2860.7312,2860.7915,2859.4802,2861.3691,2862.119,2862.6338,2862.7998,2862.332,2862.012,2862.6138,2859.511,2860.075,2860.4285,2866.6697,2860.5945,2858.7478,2933.7485,3017.1653,3030.0159,3068.7156,3127.1208,3117.4492,3060.9465,3136.1567,3126.9915,3103.1414,3143.9353,3170.849,3158.1536,3157.2444,3191.393,3194.778,3198.0874,3230.3015,3236.8374,3245.699,3297.8147,3292.8142,3289.7688,3281.1853,3302.7175,3301.4746,3300.657
2644.5483,2644.5042,2644.4973,2644.452,2643.0203,2642.8367,2642.9106,2642.362,2642.1165,2642.0046,2642.4902,2642.7253,2642.3125,2642.1975,2646.2246,2645.9167,2645.7705,2653.9578,2654.2092,2655.2317,2665.192,2664.2517,2663.7654,2663.8542,2673.725,2673.9956,2674.6753,2683.7834,2683.3862,2683.733,2687.196,2688.758,2688.4854,2685.1333,2684.8394,2684.0386,2683.834,2687.5117,2686.372,2686.0535,2687.3098,2686.9302,2686.7834,2686.648,2686.8545,2686.831,2686.6497,2685.3806,2685.325,2685.5215,2686.1135,2686.0906,2685.9963,2685.8171,2683.198,2685.3662,2686.7695,2682.0,2683.4106,2663.7954,2606.2905,2604.4702,2623.3308,2636.1785,2601.4053,2603.2773,2603.1973,nan,nan,nan,nan,nan,nan,nan,nan,nan,nan,nan,nan,nan,nan,nan,nan,nan,nan,nan,nan,nan,nan,nan,nan,nan,nan,nan,nan,nan,nan,nan,nan,nan,nan,nan,nan,nan,nan,nan,nan,nan,nan,nan,nan,nan,nan,nan,894.39453,894.3946,894.3946,878.84186,878.78735,878.5311,872.44354,872.4507,873.05774,873.9067,868.86694,869.26086,869.5636,865.5909,865.79047,865.8386,863.22375,863.2165,863.2377,863.31134,861.9223,861.9456,861.96686,861.1334,861.1243,861.1208,860.58484,860.5792,860.57043,860.563,860.30414,860.30054,860.30396,860.6725,860.67487,860.6721,861.62286,861.6267,861.6189,861.5982,863.1024,863.0652,863.0771,864.56934,864.5739,864.5717,866.0938,866.0974,866.09705,866.09534,867.61884,867.61115,867.6074,869.60645,869.5997,869.5972,871.5107,871.52234,871.53973,871.5405,873.5577,873.5534,873.5518,875.41656,875.417,875.41614,877.5871,877.59894,877.611,877.5849,879.7716,879.7591,879.77155,882.32153,882.3028,882.30505,885.32385,885.29944,885.3034,885.3357,888.67096,888.69977,888.6863,891.7278,891.7246,891.7196,894.5846,894.56525,894.56256,894.5803,897.5779,897.5839,897.5835,900.52606,900.53424,900.531,903.07135,903.07025,903.06415,903.0667,905.32324,905.3182,905.3152,907.4762,907.47894,907.47034,909.78644,909.78625,909.7817,909.7333,912.8888,912.79865,912.7281,917.46155,917.3474,917.303,924.2882,924.16187,924.20276,924.41113,934.158,934.49493,934.73047,946.6665,947.1391,946.1717,957.4794,955.2873,953.54956,952.41614,963.1945,960.49976,960.6364,974.7489,974.77686,974.84155,nan,nan,nan,nan,2821.6167,2821.564,2821.5166,2886.451,2887.7043,2878.6233,2905.3618,2904.7212,2901.3862,2896.5032,2904.7183,2903.8628,2902.9133,2901.5068,2903.9468,2903.5884,2896.3213,2894.099,2891.6074,2871.9854,2854.5532,2854.4163,2854.4226,2853.9783,2854.3433,2854.4731,2855.5,2855.5522,2855.3503,2854.8167,2857.943,2857.7583,2856.9238,2858.5852,2858.9194,2859.0469,2859.5137,2859.2546,2858.764,2859.1267,2857.0815,2857.4822,2857.7183,2866.4504,2859.071,2857.245,2967.9707,3024.9167,3023.8938,3058.4941,3121.5068,3096.2234,3049.8345,3161.7446,3161.7815,3161.5576,3161.6074,3170.726,3166.9824,3165.0793,3191.3142,3192.218,3196.8843,3209.9766,3219.7278,3261.4126,3289.4053,3290.6584,3287.5212,3287.6895,3291.5083,3290.4429,3292.3706
2644.5596,2644.512,2644.5054,2644.5002,2643.0186,2642.8337,2642.9114,2642.2024,2641.9548,2641.946,2642.5771,2642.6394,2642.2493,2642.1497,2646.2002,2645.9033,2645.7693,2653.9424,2654.307,2655.1572,2664.9573,2664.1487,2663.7458,2663.9302,2673.88,2674.123,2674.4092,2683.591,2683.9355,2683.498,2687.2905,2689.0269,2688.4863,2685.3425,2684.9587,2684.1023,2683.831,2687.3577,2686.4045,2685.907,2687.0366,2686.8357,2686.7883,2686.6196,2686.788,2686.7622,2686.5098,2685.3435,2685.3826,2685.4856,2686.15,2686.1426,2686.0894,2685.774,2683.2498,2685.4185,2686.7595,2682.5798,2679.7957,2660.6965,2607.1333,2608.0889,2632.923,2642.7876,2602.6687,2604.25,2604.22,nan,nan,nan,nan,nan,nan,nan,nan,nan,nan,nan,nan,nan,nan,nan,nan,nan,nan,nan,nan,nan,nan,nan,nan,nan,nan,nan,nan,nan,nan,nan,nan,nan,nan,nan,nan,nan,nan,nan,nan,nan,nan,nan,nan,nan,nan,nan,894.3945,894.39453,894.39453,879.7865,879.7384,878.99255,872.39966,872.3555,873.00116,873.9315,868.7911,869.1907,869.5431,865.578,865.81757,865.88245,863.2233,863.20654,863.23773,863.3114,861.9525,862.0007,861.9974,861.14716,861.1174,861.10187,860.5845,860.5716,860.5678,860.5694,860.31,860.3035,860.31085,860.673,860.68414,860.68427,861.6366,861.6428,861.61804,861.58813,863.0873,863.0641,863.05963,864.5745,864.56555,864.5775,866.0973,866.0939,866.0964,866.0953,867.6062,867.61084,867.6082,869.60315,869.5942,869.57794,871.50775,871.5105,871.5181,871.5452,873.5581,873.56104,873.5485,875.42065,875.4245,875.41626,877.60223,877.6001,877.59985,877.5858,879.767,879.76263,879.75446,882.2972,882.3011,882.3241,885.3178,885.303,885.33075,885.3292,888.6849,888.6997,888.67426,891.7226,891.7282,891.71515,894.57825,894.5647,894.5623,894.567,897.57007,897.5788,897.58435,900.53046,900.5385,900.53503,903.07385,903.06726,903.06555,903.066,905.3191,905.31104,905.31604,907.4775,907.472,907.48566,909.8385,909.8044,909.7781,909.73315,912.88904,912.7923,912.7507,917.4565,917.3587,917.3079,924.28784,924.2305,924.26526,924.43964,934.17175,934.4586,934.7317,946.5384,947.03156,946.10895,957.3926,955.3637,953.6927,952.4828,963.1694,960.60077,960.72595,974.611,974.6244,974.77405,nan,nan,nan,nan,2821.6162,2821.5273,2821.513,2880.059,2880.9194,2872.407,2899.692,2898.7966,2896.9822,2897.089,2905.1528,2905.0925,2904.0842,2902.4707,2904.9016,2900.8062,2894.3247,2891.7234,2890.1594,2872.4736,2854.6323,2854.3877,2854.3923,2853.9714,2854.1887,2854.3145,2855.5803,2855.5005,2855.3281,2854.7656,2857.7627,2857.7698,2857.0315,2858.709,2859.0308,2859.144,2859.461,2859.2527,2858.8152,2859.1606,2857.1223,2857.627,2857.8062,2865.5288,2858.2678,2857.3357,2973.0608,3025.9993,3025.5967,3052.9417,3101.575,3098.4233,3053.5408,3163.5415,3162.6187,3161.8943,3171.9597,3167.9744,3154.2383,3169.9773,3191.7722,3186.4712,3195.0776,3205.5554,3204.9138,3235.633,3289.3752,3289.3687,3290.0115,3289.5813,3287.0996,3291.1091,3293.7454
2644.5544,2644.506,2644.4727,2644.5022,2643.0728,2642.8318,2642.953,2642.2468,2642.132,2642.0474,2642.562,2642.56,2642.1604,2642.1643,2646.1965,2645.7234,2645.7808,2654.0605,2654.4873,2655.2852,2665.0786,2664.1487,2663.7058,2663.9666,2674.1157,2674.2761,2674.5125,2683.5337,2683.892,2682.68,2687.2493,2689.3462,2688.8486,2685.327,2684.659,2684.1047,2683.7249,2687.216,2686.0737,2685.7688,2686.723,2686.7974,2686.8162,2686.306,2686.7126,2686.7046,2686.4915,2685.1543,2685.2346,2685.4714,2686.019,2685.9958,2685.923,2685.6501,2683.4062,2685.309,2686.8936,2682.9846,2673.842,2659.7026,2606.1348,2611.5596,2634.8599,2645.0469,2603.087,2604.2102,2604.3572,nan,nan,nan,nan,nan,nan,nan,nan,nan,nan,nan,nan,nan,nan,nan,nan,nan,nan,nan,nan,nan,nan,nan,nan,nan,nan,nan,nan,nan,nan,nan,nan,nan,nan,nan,nan,nan,nan,nan,nan,nan,nan,nan,nan,nan,nan,nan,894.3945,894.39453,894.39453,880.2617,880.23706,878.7878,872.247,872.1413,872.8132,873.7198,868.6355,869.0364,869.4356,865.5565,865.8284,865.8628,863.22076,863.2099,863.25336,863.3238,861.9631,862.00946,862.0229,861.1242,861.09515,861.0928,860.5705,860.57007,860.5747,860.57806,860.3091,860.3071,860.3085,860.6717,860.6795,860.68066,861.629,861.6025,861.59534,861.56274,863.06903,863.0503,863.0801,864.57446,864.58154,864.58954,866.0916,866.0922,866.1004,866.09454,867.6118,867.61115,867.60016,869.6165,869.602,869.5932,871.51495,871.5084,871.5046,871.51935,873.55756,873.552,873.55536,875.43317,875.4296,875.4174,877.60785,877.60016,877.60297,877.59924,879.7678,879.7619,879.78235,882.30194,882.31067,882.31464,885.2908,885.29816,885.31995,885.3329,888.6911,888.6867,888.6764,891.7226,891.7228,891.7106,894.5834,894.57153,894.568,894.5701,897.5746,897.5796,897.58026,900.53125,900.53625,900.53296,903.0726,903.0704,903.06934,903.06415,905.3125,905.31,905.2994,907.5008,907.4798,907.4786,909.8109,909.80914,909.7621,909.7318,912.90375,912.8427,912.7476,917.4894,917.33466,917.32465,924.3295,924.26666,924.29956,924.45575,934.15674,934.4035,934.65894,946.4864,946.8695,945.96106,957.30817,955.3436,953.68494,952.46075,963.2278,960.60724,960.68787,974.6463,974.62134,974.77405,nan,nan,nan,nan,2821.6145,2821.5212,2821.5132,2880.8132,2881.2893,2872.6602,2899.3352,2896.4592,2893.64,2894.3984,2904.2976,2903.4326,2902.7312,2900.5977,2901.8523,2900.042,2892.8948,2890.5452,2889.3115,2872.3433,2854.6482,2854.3877,2854.3357,2853.9817,2854.1868,2854.2183,2855.6143,2855.4412,2855.304,2854.7385,2857.7844,2857.5054,2857.1519,2858.778,2859.0864,2859.1765,2859.4443,2859.2695,2858.99,2859.144,2857.1602,2857.6753,2857.8398,2864.8677,2857.903,2857.4294,2976.6592,3029.512,3023.2058,3040.2727,3105.2817,3096.148,3076.1946,3164.8562,3162.819,3164.4387,3173.9482,3156.6265,3146.889,3171.8667,3189.0544,3185.483,3194.1943,3204.7463,3200.1953,3213.383,3289.0498,3289.827,3288.6836,3287.27,3281.7783,3287.7358,3290.6392
2644.5542,2644.4932,2644.484,2644.508,2643.1082,2642.8113,2643.0715,2642.1455,2642.041,2642.0369,2642.539,2642.5298,2642.0588,2642.1392,2646.0854,2645.749,2645.7312,2654.0454,2654.5212,2655.6492,2664.995,2663.7761,2663.5886,2663.679,2673.8237,2674.4277,2675.122,2683.5981,2683.8318,2682.748,2687.697,2689.9048,2687.9773,2685.5017,2684.0293,2683.9338,2683.681,2686.9302,2685.5972,2685.6418,2686.4446,2686.5935,2686.543,2686.3271,2686.7483,2686.6763,2686.6277,2685.0398,2685.1716,2685.297,2685.8853,2685.888,2685.8489,2685.6514,2683.5784,2685.385,2687.0974,2683.1333,2666.9473,2659.1733,2604.4792,2610.1902,2635.3333,2647.3037,2603.1365,2604.0713,2604.3699,nan,nan,nan,nan,nan,nan,nan,nan,nan,nan,nan,nan,nan,nan,nan,nan,nan,nan,nan,nan,nan,nan,nan,nan,nan,nan,nan,nan,nan,nan,nan,nan,nan,nan,nan,nan,nan,nan,nan,nan,nan,nan,nan,nan,nan,nan,nan,894.3946,894.39453,894.3945,880.29126,880.2679,878.2784,871.97266,871.8883,872.49115,873.35394,868.40906,868.838,869.35504,865.5579,865.8338,865.8578,863.2304,863.22015,863.26324,863.3392,861.96765,862.01276,862.00134,861.0958,861.09705,861.09454,860.57117,860.5816,860.58795,860.6098,860.31177,860.317,860.3164,860.6725,860.6721,860.66864,861.6069,861.58545,861.5763,861.5638,863.0395,863.0653,863.0871,864.5934,864.599,864.5895,866.0958,866.09564,866.1006,866.10364,867.61035,867.6063,867.60486,869.60315,869.60406,869.5886,871.5127,871.5113,871.49554,871.51697,873.55884,873.54913,873.5468,875.4294,875.4247,875.41956,877.61346,877.6064,877.59937,877.60297,879.7594,879.76373,879.7588,882.3178,882.3177,882.3254,885.28455,885.32184,885.3505,885.33875,888.70056,888.68427,888.66766,891.7218,891.72455,891.70874,894.58124,894.57495,894.57355,894.57886,897.57715,897.58435,897.5903,900.5323,900.53644,900.5335,903.0719,903.06793,903.06665,903.05945,905.3194,905.3095,905.2996,907.5016,907.4946,907.4806,909.8113,909.80383,909.75964,909.7299,912.91614,912.85895,912.7803,917.5452,917.40564,917.3263,924.36273,924.3002,924.31586,924.46747,934.17944,934.4149,934.5859,946.39636,946.6366,945.75165,957.2113,955.1865,953.5059,952.3839,963.25073,960.5557,960.65204,974.62366,974.6714,974.76825,nan,nan,nan,nan,2821.6199,2821.5312,2821.5134,2880.2427,2880.7615,2872.6177,2899.6196,2897.901,2894.8215,2890.9849,2902.6843,2900.7595,2898.686,2898.531,2899.2637,2901.7573,2894.1062,2889.0618,2888.156,2872.5444,2854.5188,2854.2659,2854.3562,2854.0662,2854.1194,2854.2612,2855.5803,2855.3992,2855.3406,2854.6804,2857.8013,2857.1746,2857.214,2858.755,2858.9653,2858.9573,2859.3433,2859.239,2859.1633,2859.1348,2857.199,2857.7043,2857.7905,2864.3523,2857.6787,2857.4895,2978.2185,3035.8916,3020.1765,3037.1597,3111.5437,3088.8816,3053.6775,3141.2693,3154.3723,3158.1992,3169.7588,3151.8289,3142.9753,3170.8425,3188.5679,3187.8413,3192.8018,3207.988,3200.4697,3197.378,3285.3337,3287.3286,3287.891,3287.306,3279.5813,3281.5735,3283.6099
2641.1448,2641.1323,2641.06,2641.1865,2639.8008,2639.3948,2639.6797,2638.4607,2638.3074,2638.3958,2638.998,2638.9583,2638.2017,2638.4531,2642.5974,2642.3218,2642.4116,2650.9707,2651.3997,2652.455,2661.9211,2660.7927,2660.585,2660.2656,2670.2893,2671.47,2671.7388,2680.281,2680.4685,2679.667,2683.9775,2686.0923,2682.7754,2680.8481,2678.0522,2677.8586,2677.685,2679.9219,2678.9126,2679.038,2679.257,2679.319,2679.285,2679.0798,2679.953,2680.0898,2679.9458,2677.6387,2677.6794,2677.9514,2678.2554,2678.4033,2678.5188,2678.5728,2673.2317,2675.7905,2678.2363,2670.9932,2640.4785,2635.1458,2597.98,2598.9363,2615.2732,2623.5396,2596.4253,2598.9878,2598.211,nan,nan,nan,nan,nan,nan,nan,nan,nan,nan,nan,nan,nan,nan,nan,nan,nan,nan,nan,nan,nan,nan,nan,nan,nan,nan,nan,nan,nan,nan,nan,nan,nan,nan,nan,nan,nan,nan,nan,nan,nan,nan,nan,nan,nan,nan,nan,nan,nan,nan,874.534,874.66327,873.3365,869.2901,869.2103,869.6104,870.18414,866.044,866.44763,867.0219,863.65314,863.9514,863.95734,861.64954,861.6271,861.65924,861.70746,860.6703,860.7053,860.68933,860.1664,860.1633,860.1801,859.7892,859.81055,859.8226,859.8223,859.7039,859.6984,859.7011,860.15063,860.1478,860.14355,861.1311,861.1032,861.1065,861.1096,862.53,862.5306,862.53827,863.9573,863.97144,863.9778,865.5686,865.5495,865.5411,865.5406,867.1484,867.1344,867.1209,869.08026,869.0714,869.06323,871.0036,871.01184,871.00195,870.99426,873.0248,873.0139,873.01135,874.9137,874.9141,874.9106,877.1072,877.10956,877.1096,877.1049,879.3363,879.3364,879.33923,881.97284,881.97186,881.95917,884.88544,884.91266,884.9225,884.91895,888.1844,888.1892,888.1753,891.2024,891.19604,891.18866,894.0794,894.07104,894.0692,894.0752,897.11523,897.1188,897.1249,900.0681,900.07025,900.06494,902.6384,902.6343,902.62177,902.6312,904.85803,904.83923,904.83704,906.8869,906.89923,906.8686,909.2341,909.2139,909.1952,909.1584,912.2557,912.18976,912.12976,916.8102,916.7003,916.6203,923.27655,923.2179,923.23285,923.36426,932.43933,932.67395,932.83514,944.006,944.19965,943.35236,954.26746,952.29877,950.6045,949.43787,960.45215,957.7537,957.8413,972.19617,972.20874,972.2721,nan,nan,nan,nan,2863.3696,2852.393,2831.1223,2891.688,2891.7507,2882.483,2906.3127,2905.287,2901.0842,2894.4175,2905.874,2905.3591,2904.0125,2904.4119,2904.87,2908.9502,2899.561,2893.6523,2892.6372,2874.7048,2851.8,2851.6204,2851.7976,2851.4165,2851.588,2851.8052,2854.6626,2854.4824,2854.2725,2852.449,2856.7722,2857.5127,2857.7449,2857.6719,2857.5386,2857.3403,2857.2383,2857.1907,2857.0032,2856.8855,2856.4421,2856.6553,2856.6301,2865.1245,2857.5093,2856.6274,2984.409,3028.867,3018.6038,3032.572,3097.6335,3071.176,3035.3513,3166.5256,3165.1772,3177.7922,3183.3628,3171.5027,3167.3062,3179.6675,3190.757,3191.1873,3196.97,3210.3513,3201.561,3206.9536,3275.8752,3276.9128,3277.6492,3262.3118,3269.744,3272.558,3271.3892
2641.17,2641.1887,2641.0518,2641.3643,2639.9197,2639.484,2639.6545,2638.432,2638.2705,2638.39,2639.1238,2639.0388,2638.1812,2638.6064,2642.4102,2642.275,2642.475,2651.1514,2651.701,2652.3833,2661.9084,2660.831,2660.5828,2660.5352,2670.5144,2671.2676,2671.5781,2680.5166,2680.0547,2679.6643,2684.5425,2686.1294,2682.2703,2680.9858,2678.0862,2677.735,2677.6335,2679.7944,2678.9023,2679.1323,2679.2224,2679.3225,2679.079,2679.2412,2680.0125,2680.0342,2679.9985,2677.584,2677.7288,2677.917,2678.2192,2678.3406,2678.462,2678.5276,2673.2646,2676.102,2678.1777,2669.1763,2630.9875,2634.0762,2597.0103,2597.6484,2614.214,2622.886,2594.8618,2597.194,2597.693,nan,nan,nan,nan,nan,nan,nan,nan,nan,nan,nan,nan,nan,nan,nan,nan,nan,nan,nan,nan,nan,nan,nan,nan,nan,nan,nan,nan,nan,nan,nan,nan,nan,nan,nan,nan,nan,nan,nan,nan,nan,nan,nan,nan,nan,nan,nan,nan,nan,nan,873.5849,873.74854,873.1431,869.00964,868.9694,869.45526,870.15814,865.8701,866.3371,866.9818,863.61865,863.87274,863.9905,861.6364,861.6416,861.6545,861.7138,860.6569,860.6778,860.6546,860.1476,860.15295,860.1774,859.81464,859.8277,859.8247,859.82025,859.7105,859.707,859.69324,860.1432,860.14716,860.1299,861.12067,861.1012,861.11145,861.1273,862.53485,862.5439,862.5411,863.96106,863.96814,863.9622,865.5595,865.551,865.5445,865.53815,867.1233,867.12067,867.11816,869.07416,869.07043,869.0671,871.00574,871.0199,871.01776,871.01483,873.0178,873.014,873.0137,874.9043,874.9058,874.9079,877.10925,877.11005,877.1197,877.10596,879.3473,879.34216,879.3438,881.98706,881.981,881.9851,884.9141,884.903,884.9262,884.9424,888.1766,888.1809,888.1751,891.1973,891.1956,891.1868,894.07574,894.0656,894.06476,894.07196,897.1156,897.1299,897.1233,900.06323,900.07306,900.0713,902.6359,902.6337,902.62854,902.6235,904.843,904.8383,904.8408,906.8911,906.90015,906.8781,909.22485,909.2331,909.2085,909.17017,912.2673,912.2244,912.16925,916.9055,916.7349,916.71436,923.3759,923.3471,923.32916,923.52124,932.5054,932.7121,932.7998,943.93286,944.1018,943.247,954.0873,952.2249,950.61847,949.4154,960.38513,957.8126,957.9011,972.1354,972.16016,972.2721,nan,nan,nan,nan,2840.3982,2847.4937,2851.8655,2903.9973,2899.0105,2885.4126,2907.4958,2906.114,2902.5442,2895.2488,2906.5635,2905.4478,2903.2925,2905.1082,2904.7148,2909.0852,2899.2488,2893.6172,2892.348,2874.9622,2851.7798,2851.5554,2851.7197,2851.369,2851.601,2851.8835,2854.5505,2854.4,2854.3416,2852.0918,2856.74,2858.8972,2857.5051,2857.5925,2857.545,2857.427,2857.2346,2857.2175,2856.9766,2856.8564,2856.4678,2856.6855,2856.636,2864.4592,2857.333,2856.689,2983.6191,3024.668,3019.4272,3031.1533,3084.3281,3069.1912,3032.991,3170.6316,3174.7332,3178.474,3184.2266,3175.2183,3175.056,3180.9766,3192.5435,3194.073,3193.2551,3207.248,3202.0276,3223.2278,3278.3757,3269.7097,3274.0762,3272.7612,3281.9722,3275.8687,3269.7715
2641.162,2641.139,2641.0083,2641.3806,2639.7402,2639.476,2639.5757,2638.4255,2638.2996,2638.3523,2639.2048,2639.09,2638.3938,2638.748,2642.0176,2642.12,2642.4446,2651.4375,2651.9504,2652.3152,2661.8877,2660.7053,2660.4497,2660.8704,2670.851,2670.7505,2671.5046,2680.5205,2679.8628,2679.8762,2684.6426,2685.947,2681.3928,2681.0544,2677.888,2677.7578,2677.7412,2679.5903,2679.0405,2679.3347,2679.5876,2679.5808,2679.2183,2679.5671,2679.942,2680.0688,2679.8408,2677.5476,2677.8242,2677.8977,2678.2349,2678.3657,2678.483,2678.486,2673.2961,2676.4092,2678.0137,2663.8342,2629.738,2633.9648,2595.737,2596.413,2613.1711,2621.6355,2594.3613,2595.6257,2596.0728,nan,nan,nan,nan,nan,nan,nan,nan,nan,nan,nan,nan,nan,nan,nan,nan,nan,nan,nan,nan,nan,nan,nan,nan,nan,nan,nan,nan,nan,nan,nan,nan,nan,nan,nan,nan,nan,nan,nan,nan,nan,nan,nan,nan,nan,nan,nan,nan,nan,nan,871.672,871.55493,872.8266,868.947,869.0089,869.47107,870.13477,865.95374,866.3946,866.9975,863.6009,863.9772,863.9727,861.66595,861.63306,861.6634,861.6763,860.64905,860.63983,860.6685,860.1611,860.1804,860.1879,859.8201,859.8257,859.818,859.81396,859.7141,859.7042,859.6784,860.1193,860.1198,860.0938,861.12177,861.11914,861.13043,861.1369,862.5499,862.54156,862.54877,863.95184,863.9555,863.9628,865.5483,865.5472,865.5307,865.53705,867.13226,867.1113,867.1091,869.0744,869.0683,869.0795,871.01245,871.0201,871.01825,871.0051,873.0126,873.0128,873.0188,874.9052,874.90295,874.90314,877.0971,877.1099,877.1311,877.1043,879.35706,879.37744,879.34735,881.9974,881.978,881.9865,884.9094,884.90295,884.91956,884.9438,888.18207,888.1753,888.18915,891.20306,891.1923,891.1863,894.0728,894.063,894.0619,894.0725,897.1114,897.1207,897.12415,900.06226,900.0711,900.06744,902.6347,902.63617,902.6217,902.61597,904.82336,904.82855,904.82,906.8918,906.8931,906.8909,909.228,909.2522,909.2185,909.20715,912.2934,912.2536,912.18634,916.9588,916.83417,916.8291,923.51825,923.46533,923.3849,923.5124,932.44586,932.5906,932.6343,943.7827,944.0195,943.2498,954.21655,952.32153,950.68164,949.39386,960.3831,957.7737,957.89825,972.00214,972.0585,972.34186,nan,nan,nan,nan,2829.0332,2832.626,2841.08,2904.9817,2905.3596,2891.5632,2911.5847,2910.7905,2907.052,2898.9685,2908.4333,2906.2432,2903.868,2904.2305,2904.9004,2908.9868,2898.9937,2893.0122,2891.5957,2874.7979,2851.7837,2851.4907,2851.6738,2851.3474,2851.564,2851.883,2854.384,2854.3386,2854.398,2851.97,2856.73,2860.2864,2857.3076,2857.477,2857.5076,2857.5034,2857.235,2857.194,2856.9636,2856.8035,2856.4756,2856.6675,2856.632,2864.2478,2856.927,2856.649,2984.4087,3024.058,3037.6033,3038.4136,3094.3792,3071.3103,3038.968,3172.1423,3175.565,3183.4097,3185.482,3178.8254,3180.761,3178.57,3192.0251,3191.5479,3196.298,3207.0786,3202.6882,3223.4634,3265.489,3268.1729,3270.1846,3262.1714,3280.3352,3281.3372,3274.0232
2637.0884,2637.1118,2636.9692,2637.445,2635.5278,2635.448,2635.51,2634.401,2634.2827,2634.4038,2635.5222,2635.1184,2634.7412,2635.0437,2638.6794,2638.998,2639.3848,2648.7197,2648.8787,2649.998,2659.6057,2658.4014,2658.1519,2658.805,2668.3982,2668.3923,2669.471,2677.3079,2676.6997,2676.8135,2679.7417,2680.4292,2677.116,2677.0437,2673.1382,2673.038,2673.11,2674.096,2673.8015,2673.9717,2673.7944,2673.6846,2673.1943,2673.4832,2672.96,2673.0413,2672.7458,2670.3057,2670.5837,2670.7463,2670.0354,2670.3083,2670.4448,2670.4995,2663.6738,2667.1707,2669.1777,2641.1357,2612.2097,2614.7524,2589.1543,2589.3164,2598.9546,2605.185,2588.6558,2589.1443,2589.2605,nan,nan,nan,nan,nan,nan,nan,nan,nan,nan,nan,nan,nan,nan,nan,nan,nan,nan,nan,nan,nan,nan,nan,nan,nan,nan,nan,nan,nan,nan,nan,nan,nan,nan,nan,nan,nan,nan,nan,nan,nan,nan,nan,nan,nan,nan,nan,878.40576,878.40576,878.40576,869.38165,869.191,871.10596,866.71796,866.8396,867.4543,868.2855,864.1248,864.5484,865.07336,861.8129,862.1294,862.1372,859.99615,859.9691,859.9743,860.0113,859.14386,859.1614,859.20984,858.874,858.90344,858.9164,858.61035,858.60706,858.5674,858.54846,858.7269,858.72473,858.68286,859.4282,859.42487,859.4205,860.66846,860.67957,860.6861,860.68555,862.11523,862.1052,862.0898,863.57367,863.56934,863.5678,865.21704,865.22095,865.219,865.2109,866.7986,866.7989,866.7976,868.6952,868.6926,868.6953,870.6087,870.6189,870.59564,870.5728,872.6108,872.59875,872.6054,874.5566,874.54913,874.5413,876.71606,876.7215,876.73126,876.742,878.9701,878.98096,878.97577,881.6582,881.67847,881.6611,884.5168,884.5029,884.5486,884.5265,887.71576,887.73114,887.73206,890.62115,890.6184,890.60767,893.5049,893.492,893.4929,893.5015,896.5806,896.58716,896.5921,899.5718,899.58075,899.57306,902.11975,902.1101,902.0947,902.0855,904.17834,904.18744,904.18524,906.21106,906.2189,906.23175,908.6391,908.6415,908.63855,908.6869,911.72174,911.6911,911.6937,916.57825,916.4156,916.35016,922.55286,922.4044,922.38007,922.2667,930.4762,930.47375,930.5874,941.5177,941.7114,940.7743,951.69086,950.14343,948.5478,947.0316,958.51276,956.6236,956.6773,966.1333,966.2494,966.49365,nan,nan,nan,nan,2868.2666,2867.9592,2867.025,2911.9138,2912.0437,2904.37,2921.0774,2919.6304,2916.2544,2909.7788,2918.4348,2917.41,2915.8342,2909.2927,2911.7437,2917.2258,2898.968,2897.5598,2890.8477,2871.4336,2849.9626,2849.9465,2850.0117,2850.6125,2850.5425,2850.5798,2855.184,2855.1094,2855.1355,2851.2756,2857.559,2864.4543,2858.7842,2858.2034,2858.0835,2858.2517,2857.175,2857.1648,2856.7646,2856.7808,2857.7473,2857.5483,2857.3955,2865.6245,2858.5847,2858.397,3007.5742,3016.941,3045.8044,3046.0142,3142.2766,3064.7683,3049.6096,3185.467,3184.6514,3194.471,3194.2944,3201.0464,3192.175,3191.7432,3204.1191,3195.8909,3202.5303,3214.6863,3212.2356,3250.5942,3273.7573,3278.6318,3274.5486,3253.1318,3274.9128,3270.3003,3267.1055
2637.0803,2637.0698,2636.9922,2637.4124,2635.4287,2635.3904,2635.4497,2634.3645,2634.2866,2634.3958,2635.5378,2634.9548,2634.581,2635.1765,2639.2566,2638.9077,2639.358,2648.9111,2649.3071,2649.7224,2659.5586,2658.4324,2658.1086,2658.4958,2668.2793,2668.695,2669.9248,2677.1838,2676.7156,2676.8325,2679.7307,2679.6492,2676.8486,2677.0125,2673.1333,2673.0076,2673.1433,2674.045,2673.9397,2674.0063,2673.9238,2673.7063,2673.367,2673.4675,2672.9324,2672.959,2672.7039,2670.509,2670.6848,2670.7778,2670.0986,2670.3381,2670.4797,2670.602,2664.6614,2667.626,2669.0815,2632.0024,2613.1003,2614.7214,2589.0708,2589.6426,2599.69,2604.9316,2588.6104,2589.1118,2588.7756,nan,nan,nan,nan,nan,nan,nan,nan,nan,nan,nan,nan,nan,nan,nan,nan,nan,nan,nan,nan,nan,nan,nan,nan,nan,nan,nan,nan,nan,nan,nan,nan,nan,nan,nan,nan,nan,nan,nan,nan,nan,nan,nan,nan,nan,nan,nan,878.40576,878.40576,878.4058,869.17334,869.03436,871.0954,866.6974,866.88934,867.5729,868.4373,864.20355,864.61945,865.11017,861.8209,862.0913,862.134,859.97174,859.9677,859.98224,860.01526,859.17163,859.225,859.25476,858.9672,858.95514,858.9359,858.62445,858.589,858.5767,858.5425,858.7108,858.694,858.7162,859.457,859.45917,859.43695,860.6894,860.69226,860.6804,860.68494,862.0898,862.08765,862.0961,863.5735,863.5715,863.57526,865.2131,865.21277,865.2098,865.2045,866.79584,866.782,866.7857,868.69507,868.69366,868.69104,870.6048,870.6058,870.601,870.5929,872.6067,872.61194,872.6164,874.5496,874.54767,874.53894,876.7189,876.71484,876.7283,876.7292,878.9685,878.9624,878.9847,881.6731,881.67615,881.66425,884.54517,884.53644,884.5329,884.5088,887.7252,887.7532,887.7387,890.61975,890.61365,890.6116,893.5013,893.4934,893.4887,893.4971,896.57776,896.58655,896.59644,899.5755,899.5797,899.56854,902.11194,902.0993,902.09174,902.07025,904.1832,904.1781,904.1779,906.2015,906.2472,906.2454,908.6458,908.7105,908.7276,908.7731,911.8248,911.76044,911.77966,916.68823,916.5469,916.51263,922.7285,922.62006,922.52014,922.3824,930.41095,930.31146,930.43823,941.297,941.6171,940.7799,951.6456,950.29803,948.64294,947.08813,958.4327,956.56433,956.6248,966.03613,966.11505,966.4616,nan,nan,nan,nan,2867.863,2867.4294,2866.82,2911.8982,2912.0627,2904.2966,2920.9065,2918.9297,2914.773,2906.645,2918.2148,2917.5642,2917.3477,2913.9568,2916.887,2918.8887,2900.2112,2897.68,2887.5737,2870.0547,2849.9348,2849.9229,2849.9905,2850.596,2850.5144,2850.5547,2855.3623,2855.1072,2854.9795,2851.304,2857.576,2864.4475,2858.9575,2858.232,2858.134,2858.1533,2857.186,2857.1902,2856.7842,2856.7495,2857.7668,2857.491,2857.3628,2864.8623,2858.6008,2858.8389,3004.8132,3012.987,3040.0842,3043.6765,3145.4238,3063.1472,3048.6309,3186.3057,3183.6316,3187.1394,3188.9802,3197.0818,3193.791,3186.4814,3200.1672,3194.9617,3199.678,3219.3147,3226.9143,3248.4792,3281.305,3281.386,3274.4763,3262.5398,3266.5918,3273.8242,3269.209
2637.0708,2637.033,2636.9783,2637.2568,2635.3943,2635.2266,2635.432,2634.3735,2634.3005,2634.4521,2635.426,2634.8645,2634.6106,2635.1929,2639.4111,2639.222,2639.3386,2648.89,2649.4487,2649.526,2659.3108,2658.3008,2658.2615,2658.5393,2668.3416,2669.274,2669.941,2677.0273,2676.3904,2676.6892,2679.9983,2678.6028,2676.76,2677.3757,2673.186,2672.9849,2673.194,2673.9856,2674.0942,2674.0615,2673.8738,2673.8088,2673.392,2673.4727,2672.9854,2673.0417,2672.7654,2670.5903,2670.7373,2670.8916,2670.1545,2670.3643,2670.5044,2670.5862,2665.2825,2668.026,2668.9915,2621.7297,2614.4187,2615.358,2589.3208,2589.7913,2600.779,2605.3389,2588.5115,2589.2617,2588.924,nan,nan,nan,nan,nan,nan,nan,nan,nan,nan,nan,nan,nan,nan,nan,nan,nan,nan,nan,nan,nan,nan,nan,nan,nan,nan,nan,nan,nan,nan,nan,nan,nan,nan,nan,nan,nan,nan,nan,nan,nan,nan,nan,nan,nan,nan,nan,878.40576,878.4057,878.40576,869.1398,869.0401,871.0911,866.69165,866.95575,867.68054,868.55865,864.28455,864.72076,865.1262,861.76227,862.08014,862.0748,859.96356,859.9542,859.97424,860.0306,859.2022,859.2363,859.2924,858.9692,858.97015,858.9427,858.5932,858.56714,858.4939,858.4413,858.68616,858.6694,858.66907,859.4546,859.45416,859.43616,860.6796,860.6848,860.6818,860.6704,862.09595,862.09937,862.11285,863.5922,863.57745,863.5608,865.2134,865.20856,865.2061,865.19556,866.7815,866.7942,866.78534,868.691,868.6937,868.69977,870.6104,870.6239,870.60144,870.61554,872.6335,872.61707,872.6126,874.55475,874.54486,874.53217,876.719,876.72034,876.7113,876.72205,878.96094,878.9581,878.9722,881.67426,881.6596,881.6696,884.51776,884.5103,884.5498,884.54364,887.73267,887.7443,887.75165,890.6171,890.6105,890.6069,893.5073,893.49725,893.49536,893.4933,896.5712,896.58307,896.59485,899.566,899.566,899.55255,902.1048,902.0827,902.0791,902.06274,904.17426,904.1783,904.2087,906.24774,906.2877,906.29474,908.71045,908.8018,908.8377,908.84985,911.87366,911.83386,911.836,916.73285,916.71387,916.6712,922.8695,922.8029,922.64636,922.48157,930.4272,930.21533,930.3344,941.2635,941.5922,940.7805,951.66473,950.236,948.7364,947.1483,958.3884,956.5388,956.5511,965.95734,966.0692,966.4616,nan,nan,nan,nan,2867.0024,2866.8367,2866.4268,2911.8198,2911.9727,2903.6628,2920.7861,2918.3464,2914.4082,2906.3242,2919.2795,2918.732,2917.8723,2920.3708,2920.465,2916.7617,2907.0437,2898.5085,2884.7122,2869.2146,2849.941,2849.9143,2849.9863,2850.58,2850.508,2850.579,2855.4165,2855.1917,2855.0674,2851.3796,2857.623,2863.9263,2859.9854,2858.3953,2858.1562,2858.1646,2857.1785,2857.2197,2856.7654,2856.7622,2857.69,2857.4636,2857.323,2864.3452,2858.3918,2858.8154,3000.665,3011.102,3038.45,3044.1265,3137.5393,3065.7114,3047.912,3179.073,3195.156,3188.129,3196.6526,3196.8264,3194.2505,3184.5486,3196.564,3197.103,3198.349,3221.9258,3259.185,3266.141,3283.0007,3282.0732,3278.7966,3277.9824,3268.0312,3268.7017,3270.921
2637.0479,2636.971,2636.972,2637.228,2635.4,2635.2305,2635.8164,2634.3865,2634.3176,2634.4905,2635.3293,2634.9456,2634.8389,2635.1313,2639.2173,2639.1956,2639.3884,2648.907,2649.0425,2649.4414,2659.0696,2658.4683,2658.507,2658.4482,2668.304,2669.1467,2669.522,2676.7266,2676.7039,2676.8774,2680.1042,2677.9287,2676.8665,2677.6538,2673.1516,2673.0005,2673.2422,2673.968,2674.1738,2674.0574,2673.8682,2673.7725,2673.4712,2673.4348,2672.9663,2672.9673,2672.8347,2670.722,2670.8062,2670.9194,2670.1677,2670.3818,2670.5151,2670.6675,2665.4282,2668.238,2669.2515,2616.0742,2615.417,2616.181,2589.532,2590.7148,2602.2158,2606.8047,2589.119,2589.8828,2589.588,nan,nan,nan,nan,nan,nan,nan,nan,nan,nan,nan,nan,nan,nan,nan,nan,nan,nan,nan,nan,nan,nan,nan,nan,nan,nan,nan,nan,nan,nan,nan,nan,nan,nan,nan,nan,nan,nan,nan,nan,nan,nan,nan,nan,nan,nan,nan,878.40576,878.4058,878.40576,869.52374,869.4478,871.07654,866.84595,867.1408,867.7902,868.5868,864.4352,864.8342,865.1968,861.86804,862.061,862.03296,859.9634,859.96674,859.98834,860.0676,859.22266,859.2575,859.3013,858.9356,858.9413,858.8897,858.5287,858.48206,858.4045,858.3716,858.64923,858.6626,858.6604,859.43976,859.42633,859.42,860.6722,860.671,860.67126,860.657,862.07495,862.08405,862.1002,863.5873,863.5756,863.5804,865.2282,865.24207,865.2385,865.2311,866.8093,866.80396,866.7994,868.7061,868.6915,868.7026,870.6133,870.61816,870.60474,870.61896,872.6258,872.61115,872.60803,874.54474,874.54175,874.5331,876.7227,876.72577,876.722,876.7194,878.95404,878.9571,878.9763,881.66016,881.66943,881.6705,884.5225,884.5091,884.5175,884.52936,887.7311,887.7455,887.7258,890.62836,890.62573,890.62067,893.5047,893.50183,893.4907,893.49817,896.5706,896.57166,896.57007,899.54395,899.54926,899.53107,902.0819,902.0844,902.05206,902.0541,904.1946,904.20374,904.21655,906.2802,906.28577,906.35516,908.74554,908.80524,908.86176,908.8469,911.8604,911.82056,911.81116,916.77277,916.7806,916.7199,922.9262,922.9291,922.8437,922.6298,930.52386,930.2146,930.34534,941.26904,941.4827,940.73663,951.66656,950.31384,948.7602,947.1724,958.48145,956.56226,956.6011,966.01575,966.10834,966.39844,nan,nan,nan,nan,2864.709,2864.9495,2864.4255,2910.748,2911.0366,2903.0413,2920.6646,2918.4243,2914.713,2906.715,2919.9136,2919.0703,2918.0488,2921.0667,2922.4834,2919.5652,2903.2314,2906.8237,2879.187,2868.2168,2849.9282,2849.889,2850.1934,2850.55,2850.4631,2850.5693,2855.4727,2855.1396,2855.1504,2851.1711,2857.6309,2863.479,2861.1316,2858.492,2858.219,2858.221,2857.2048,2857.1953,2856.7834,2856.7737,2857.6426,2857.3977,2857.3198,2864.1052,2858.2383,2858.9187,3001.6863,3016.1387,3043.3955,3046.6982,3127.8691,3065.4143,3051.263,3181.004,3195.307,3190.3562,3198.7612,3196.7292,3189.928,3181.5027,3196.327,3195.4553,3198.488,3216.348,3266.987,3267.53,3280.5422,3282.3005,3281.8203,3276.7234,3268.1743,3266.6052,3269.8728
2633.3606,2633.3032,2633.2837,2633.595,2631.7827,2631.6755,2632.2092,2630.9016,2630.8577,2630.9128,2632.2454,2632.118,2631.968,2632.0244,2636.4739,2636.5562,2636.626,2646.5144,2646.9146,2646.8042,2657.356,2656.591,2656.0947,2656.7708,2666.3665,2666.7856,2667.267,2673.6238,2673.4788,2673.3398,2675.065,2673.7468,2672.9832,2673.4087,2668.9495,2668.8147,2669.1807,2669.0234,2669.2456,2669.1592,2668.2766,2668.3994,2668.1624,2668.0146,2666.8894,2666.7788,2666.6604,2664.4458,2664.506,2664.637,2662.6145,2663.0464,2663.2766,2663.6511,2656.4463,2660.0925,2661.4592,2601.8608,2602.9414,2602.8452,2586.5532,2588.1394,2595.502,2598.8423,2586.4102,2586.691,2586.6606,nan,nan,nan,nan,nan,nan,nan,nan,nan,nan,nan,nan,nan,nan,nan,nan,nan,nan,nan,nan,nan,nan,nan,nan,nan,nan,nan,nan,nan,nan,nan,nan,nan,nan,nan,nan,nan,nan,nan,nan,nan,nan,nan,nan,nan,nan,nan,876.79095,876.431,876.34265,867.4955,867.3897,869.19763,864.61414,864.8687,865.6331,866.5841,862.5953,862.91296,863.262,860.2272,860.4003,860.4137,858.71875,858.71735,858.75323,858.79517,857.9675,857.98926,858.01154,857.59143,857.6047,857.5339,857.1361,857.0369,856.96924,856.9837,857.6155,857.60095,857.5723,858.70355,858.6742,858.68634,860.21277,860.1993,860.21075,860.20575,861.63245,861.6364,861.61365,863.18555,863.19763,863.20404,864.7776,864.8934,864.9939,865.08496,866.76544,866.78735,866.7984,868.60736,868.56696,868.5103,870.3793,870.36053,870.35455,870.3234,872.3459,872.337,872.3359,874.3115,874.31226,874.3142,876.4168,876.41486,876.41364,876.41064,878.61725,878.61444,878.61383,881.2934,881.2944,881.2924,884.1473,884.1376,884.1415,884.1368,887.2767,887.2892,887.27716,890.10956,890.1046,890.097,892.94196,892.9314,892.92957,892.9296,895.9779,895.98505,895.96655,898.93677,898.9241,898.89343,901.4599,901.45703,901.42035,901.4272,903.46124,903.48303,903.52045,905.52893,905.5711,905.6853,908.1274,908.17,908.1663,908.1567,911.55225,911.5832,911.6165,916.8036,916.7907,916.8012,922.9205,923.01556,922.82117,922.666,929.79645,929.54224,929.67676,939.22314,939.42847,938.8171,949.0599,947.795,946.4054,944.78204,955.74866,953.9148,953.95795,962.92084,962.9506,963.06537,nan,nan,nan,nan,2867.9304,2867.3447,2866.8167,2911.25,2911.2231,2901.9663,2928.1472,2919.3984,2914.0413,2906.8882,2920.8271,2919.4924,2918.651,2928.3787,2928.3875,2925.9663,2911.0596,2929.9485,2867.864,2863.8638,2849.9038,2849.845,2849.8933,2851.512,2851.2576,2851.0251,2856.843,2856.396,2856.401,2852.457,2858.9236,2864.1382,2862.7993,2859.5374,2859.9407,2859.8064,2858.3755,2858.327,2858.0557,2858.0605,2859.566,2858.9268,2858.8171,2866.5042,2860.2373,2862.9456,3069.8677,3063.551,3069.008,3070.264,3117.4548,3075.7495,3064.652,3222.0,3203.8433,3200.8364,3220.865,3209.53,3209.8013,3213.2666,3249.0388,3216.3586,3222.7004,3281.7239,3280.058,3278.4966,3275.1143,3272.267,3270.8584,3264.798,3283.134,3277.2617,3264.4644
2633.3591,2633.2898,2633.3376,2633.5127,2631.7568,2631.855,2632.065,2630.898,2630.8794,2630.9392,2632.1533,2631.8938,2631.9585,2632.062,2636.3066,2636.5303,2636.7632,2646.6162,2647.58,2646.8445,2657.4963,2656.2922,2656.2139,2657.1387,2666.6895,2666.8962,2666.9717,2673.4814,2673.3528,2673.1824,2674.9763,2673.2595,2672.8677,2673.4167,2668.9844,2668.879,2669.5657,2669.0466,2669.1794,2669.189,2668.5688,2668.6309,2667.9285,2667.9993,2666.7668,2666.6497,2666.5034,2664.4138,2664.536,2664.6797,2662.674,2663.0984,2663.3176,2663.7908,2656.7168,2660.5396,2661.7405,2600.229,2602.9373,2603.0852,2586.6196,2589.3647,2595.6953,2599.1082,2586.4429,2586.7412,2586.7207,nan,nan,nan,nan,nan,nan,nan,nan,nan,nan,nan,nan,nan,nan,nan,nan,nan,nan,nan,nan,nan,nan,nan,nan,nan,nan,nan,nan,nan,nan,nan,nan,nan,nan,nan,nan,nan,nan,nan,nan,nan,nan,nan,nan,nan,nan,nan,876.79095,876.6574,876.6063,867.64056,867.5573,869.35065,864.7166,864.9978,865.7667,866.7133,862.7195,863.02704,863.31866,860.2615,860.3949,860.4165,858.71783,858.73535,858.75995,858.80365,857.97595,857.98334,857.9758,857.5131,857.5038,857.44025,857.1148,857.08136,857.06854,857.0223,857.5935,857.6061,857.60565,858.7118,858.6878,858.6914,860.1924,860.18805,860.20044,860.18036,861.59674,861.60516,861.60547,863.27,863.2706,863.2639,864.8831,864.9215,865.03845,865.235,866.8536,866.8277,866.8267,868.6324,868.6395,868.6113,870.4192,870.35144,870.3378,870.32764,872.33954,872.33356,872.3392,874.31116,874.31464,874.3135,876.4039,876.4076,876.41486,876.398,878.61194,878.5961,878.5954,881.2687,881.2775,881.27765,884.1538,884.0955,884.1107,884.1358,887.2815,887.2848,887.2832,890.1091,890.10406,890.0992,892.943,892.9302,892.92944,892.93066,895.9718,895.9631,895.9773,898.92316,898.8853,898.8509,901.42847,901.43005,901.3963,901.40283,903.4412,903.49286,903.48334,905.5684,905.56696,905.7082,908.19824,908.19995,908.1609,908.1599,911.6428,911.62787,911.60004,916.8005,916.8146,916.9496,922.98627,923.0984,922.9511,922.773,929.8584,929.5867,929.6618,939.1085,939.3759,938.6478,948.97314,947.72687,946.37476,944.80994,955.74884,953.9103,953.9713,962.91833,962.94336,963.0721,nan,nan,nan,nan,2868.2317,2867.0981,2866.4402,2911.5698,2911.5884,2902.781,2926.8845,2920.3218,2913.8667,2905.6348,2920.5605,2918.9805,2918.074,2927.3303,2929.153,2926.2634,2913.6865,2911.2466,2865.7583,2864.0193,2849.912,2849.8123,2849.7783,2851.3987,2851.2393,2850.9397,2856.5818,2856.3074,2856.4429,2852.3982,2858.9658,2864.317,2862.902,2859.2659,2859.7815,2859.912,2858.4197,2858.3232,2858.0503,2858.0276,2859.5486,2858.9001,2858.7832,2865.8657,2859.9187,2861.9766,3059.312,3073.5671,3079.4937,3074.396,3086.774,3076.185,3060.3918,3221.954,3201.6116,3197.2087,3212.2292,3206.4927,3205.6538,3220.7085,3271.191,3251.9985,3228.2903,3291.905,3279.877,3278.0125,3273.8152,3269.5168,3277.3389,3271.0088,3280.6597,3268.4275,3264.586
2633.338,2633.2854,2633.3157,2633.3464,2631.666,2632.0679,2631.7793,2630.9077,2630.8958,2631.0498,2632.093,2631.9119,2631.9077,2631.9778,2636.1382,2636.51,2636.8691,2646.9265,2647.7268,2647.18,2657.1948,2656.0808,2655.9446,2657.7852,2666.7021,2666.7485,2666.7166,2673.2273,2673.4915,2673.1738,2675.2302,2673.1816,2672.9092,2673.4475,2668.9043,2668.894,2669.749,2669.0244,2669.132,2669.1794,2668.4856,2668.3674,2667.98,2667.9407,2666.6577,2666.4482,2666.5723,2664.4595,2664.5662,2664.7104,2662.7214,2663.0977,2663.338,2663.9536,2657.1367,2660.94,2660.8591,2599.8694,2603.2166,2602.9487,2586.644,2590.3896,2596.0266,2599.3923,2586.4456,2586.7627,2586.7551,nan,nan,nan,nan,nan,nan,nan,nan,nan,nan,nan,nan,nan,nan,nan,nan,nan,nan,nan,nan,nan,nan,nan,nan,nan,nan,nan,nan,nan,nan,nan,nan,nan,nan,nan,nan,nan,nan,nan,nan,nan,nan,nan,nan,nan,nan,nan,876.79095,876.7512,876.74506,867.87305,867.8021,869.4894,864.9025,865.18726,865.9062,866.85815,862.8629,863.16455,863.39575,860.2788,860.41064,860.43243,858.7224,858.74493,858.77325,858.8093,857.952,857.95135,857.9181,857.3777,857.35876,857.39526,857.1111,857.0363,857.049,857.06506,857.62384,857.64,857.6483,858.72095,858.69934,858.7049,860.2095,860.1902,860.17596,860.1815,861.60645,861.6436,861.73376,863.33386,863.38873,863.40704,865.05084,865.0752,865.1046,865.21796,866.82947,866.84424,866.8201,868.62634,868.6262,868.5973,870.4481,870.36835,870.3141,870.3232,872.3392,872.3347,872.33923,874.31775,874.31757,874.3102,876.4145,876.40924,876.40765,876.3853,878.5932,878.5817,878.5657,881.2094,881.25836,881.2763,884.11743,884.10114,884.13153,884.1434,887.2709,887.286,887.2834,890.10767,890.1029,890.09406,892.92786,892.92755,892.9135,892.903,895.92206,895.9192,895.914,898.8884,898.86584,898.8425,901.46045,901.44183,901.4033,901.37616,903.4103,903.39166,903.4054,905.4547,905.4854,905.6823,908.16266,908.1334,908.10156,908.0991,911.62067,911.59314,911.6245,916.8314,916.87463,917.16766,923.0773,923.2493,923.1136,922.8818,929.98364,929.66864,929.68304,939.1561,939.22736,938.5081,948.8326,947.6622,946.3846,944.86505,955.78125,953.93427,953.9706,962.9429,962.9845,963.0882,nan,nan,nan,nan,2868.2273,2867.0874,2866.1123,2911.4514,2911.556,2903.5293,2926.1384,2923.0764,2917.2126,2910.4187,2924.1265,2921.2944,2919.5037,2926.4062,2930.7786,2930.4236,2921.0154,2898.4827,2864.982,2862.5925,2849.9055,2849.802,2849.735,2851.355,2851.1226,2850.9873,2856.8591,2856.3477,2856.4255,2852.5315,2858.8843,2864.386,2863.803,2859.4355,2859.4885,2859.8845,2858.41,2858.3008,2858.0403,2857.984,2859.5776,2858.877,2858.8284,2864.7542,2859.8687,2861.032,3048.925,3078.0967,3086.9756,3090.7874,3081.0461,3077.9082,3054.8145,3219.5908,3197.047,3193.609,3202.7827,3208.6758,3219.9973,3243.4543,3281.043,3286.071,3287.036,3284.755,3278.864,3279.1094,3274.072,3275.9348,3278.6333,3266.15,3278.6697,3265.6248,3264.8916
2633.3572,2633.312,2633.3264,2633.3188,2631.766,2632.1487,2631.6858,2630.901,2630.9658,2631.101,2632.0437,2631.8591,2631.9685,2631.9707,2636.5012,2636.5176,2636.95,2647.0671,2647.3958,2646.616,2657.0217,2656.4512,2656.3047,2657.3743,2666.857,2667.0076,2666.7788,2673.3171,2673.756,2673.3162,2675.6094,2673.1086,2672.875,2673.4739,2668.8464,2668.9187,2669.8467,2669.009,2669.1328,2669.167,2668.5178,2668.4026,2667.909,2667.961,2666.5906,2666.5251,2666.5542,2664.4646,2664.5667,2664.6982,2662.744,2663.0938,2663.2756,2663.9836,2657.7976,2660.6653,2656.9392,2599.3647,2602.036,2602.5234,2586.6697,2590.5815,2596.6335,2599.8367,2586.4546,2586.7617,2586.7502,nan,nan,nan,nan,nan,nan,nan,nan,nan,nan,nan,nan,nan,nan,nan,nan,nan,nan,nan,nan,nan,nan,nan,nan,nan,nan,nan,nan,nan,nan,nan,nan,nan,nan,nan,nan,nan,nan,nan,nan,nan,nan,nan,nan,nan,nan,nan,876.8221,876.7658,876.7752,868.2184,868.1753,869.6088,865.133,865.40814,866.0519,866.9414,863.0242,863.3424,863.50323,860.34595,860.4609,860.5002,858.75433,858.7665,858.79065,858.84186,857.9199,857.9022,857.86926,857.3029,857.34845,857.38806,857.12244,857.09735,857.07587,857.09454,857.6328,857.6803,857.6897,858.74097,858.7136,858.73114,860.2118,860.2074,860.19995,860.25653,861.693,861.7282,861.8314,863.4275,863.4698,863.4845,865.08746,865.1241,865.13837,865.1873,866.83435,866.8557,866.82184,868.6203,868.61664,868.5915,870.5031,870.3985,870.325,870.32056,872.34375,872.33594,872.34,874.3122,874.3152,874.31506,876.41364,876.4046,876.4025,876.3975,878.5824,878.5724,878.5416,881.24445,881.2666,881.25977,884.1163,884.1407,884.1296,884.1324,887.2633,887.2767,887.25586,890.08905,890.0779,890.0576,892.87463,892.882,892.8749,892.8584,895.85266,895.88654,895.89825,898.95135,898.93335,898.9215,901.5322,901.5403,901.49493,901.476,903.4341,903.4172,903.3443,905.53235,905.4847,905.5167,908.0391,908.07855,908.0825,907.99255,911.45233,911.54193,911.7013,916.9388,916.8223,917.3114,923.3669,923.4124,923.3662,923.0576,930.1012,929.6648,929.65234,939.08124,939.1644,938.485,948.8459,947.73944,946.4656,944.9384,955.8714,954.00446,954.0221,963.00793,963.0446,963.09265,nan,nan,nan,nan,2867.8948,2867.2375,2866.5166,2911.2554,2911.427,2903.339,2926.546,2925.1738,2920.7366,2917.2568,2931.1326,2930.1943,2929.345,2915.6233,2925.828,2930.9165,2894.9883,2895.1992,2862.186,2862.5806,2849.8645,2849.7363,2849.7393,2851.259,2851.0603,2850.9204,2856.7927,2856.4763,2856.4102,2852.4832,2858.8096,2863.9204,2863.3972,2859.5962,2859.3953,2859.8647,2858.403,2858.2756,2858.041,2857.9753,2859.5146,2858.8604,2858.7444,2863.1082,2859.6477,2861.1025,3044.5913,3079.5037,3087.1475,3093.7844,3079.3762,3077.5735,3054.583,3222.1987,3193.9714,3193.9958,3212.6887,3216.1616,3262.143,3270.3435,3284.2673,3285.742,3288.5012,3278.417,3277.522,3277.9587,3275.78,3277.461,3276.3271,3257.112,3276.3418,3266.021,3265.332
2630.4124,2630.3494,2630.4163,2630.437,2629.1125,2629.2783,2629.0283,2628.3022,2628.3115,2628.4607,2629.7788,2629.9773,2629.816,2629.6953,2635.024,2634.94,2635.4631,2645.3206,2645.2524,2644.865,2655.2,2654.8735,2655.0845,2655.8586,2664.6926,2665.132,2665.4524,2670.526,2670.8477,2670.6074,2672.5178,2670.314,2669.5576,2669.9653,2665.7195,2665.869,2666.809,2665.0764,2665.436,2665.4446,2664.1704,2664.1,2663.617,2663.521,2661.7324,2661.5237,2661.6826,2659.446,2659.5447,2659.6597,2656.1196,2656.7913,2657.0366,2657.885,2650.1118,2653.9985,2646.196,2595.4102,2595.925,2596.4346,2587.4314,2591.047,2595.1882,2595.809,2587.3667,2587.0674,2587.0696,nan,nan,nan,nan,nan,nan,nan,nan,nan,nan,nan,nan,nan,nan,nan,nan,nan,nan,nan,nan,nan,nan,nan,nan,nan,nan,nan,nan,nan,nan,nan,nan,nan,nan,nan,nan,nan,nan,nan,nan,nan,nan,nan,nan,nan,nan,nan,875.6673,875.33435,875.197,866.5424,866.4681,868.05304,863.60364,863.84576,864.54584,865.50867,861.74866,862.01013,862.1118,859.1954,859.2864,859.30585,857.71594,857.7245,857.76117,857.8048,856.74,856.7015,856.65625,855.89905,855.92267,855.9587,855.6124,855.60583,855.60675,855.63525,856.3368,856.33795,856.35876,857.7081,857.6629,857.7207,859.43463,859.489,859.54083,859.5839,861.15234,861.18756,861.28796,862.97577,862.99866,862.94147,864.6946,864.63245,864.46295,864.16376,866.3826,866.33856,866.19476,868.22003,868.1178,868.0638,870.05304,870.0312,869.98615,869.9715,871.9975,871.9838,871.98553,873.97565,873.9785,873.9774,876.04767,876.0462,876.03107,876.04095,878.19543,878.19293,878.19183,880.8606,880.86847,880.89026,883.7676,883.7354,883.74,883.69855,886.7822,886.7556,886.74805,889.4823,889.48145,889.4881,892.3025,892.2918,892.37756,892.4203,895.4151,895.4387,895.4371,898.42816,898.5021,898.5054,900.95044,900.9091,900.85345,900.8015,902.56616,902.48956,902.374,905.4781,905.4814,905.46967,908.9254,908.7803,908.74615,908.6947,913.1954,913.0018,913.1158,918.8411,919.00543,919.1115,924.2988,924.41406,924.37976,924.20197,930.0673,929.7803,929.9658,938.0721,938.10834,937.53107,947.7731,946.8218,945.61017,944.0942,954.8513,953.0487,953.09656,961.79816,961.8047,961.8196,nan,nan,nan,nan,2867.3647,2867.3586,2867.35,2910.5251,2910.7004,2902.5962,2929.7432,2923.3718,2918.2664,2916.7222,2952.1382,2953.4773,2954.9067,2929.353,2917.7915,2950.3933,2874.5073,2858.172,2853.7722,2854.8196,2850.8076,2850.5195,2850.2957,2852.501,2852.217,2851.974,2857.4275,2857.0635,2857.107,2854.2207,2859.2898,2862.543,2861.738,2861.6953,2861.6018,2861.5652,2859.8633,2859.7605,2859.8608,2860.0054,2862.5286,2860.6855,2860.7134,2865.7305,2860.0142,2862.4722,3117.3384,3110.038,3125.8557,3144.135,3097.3677,3095.7312,3082.5396,3251.0164,3202.5164,3205.5356,3309.9478,3286.1965,3312.0635,3312.6526,3288.1733,3288.179,3294.8833,3275.0767,3275.001,3274.237,3276.317,3273.0566,3273.6785,3278.493,3268.2463,3268.9424,3268.7268
2630.4106,2630.358,2630.3982,2630.354,2629.1287,2629.159,2628.9302,2628.2983,2628.308,2628.4617,2629.7993,2629.9993,2629.8955,2629.661,2635.0645,2634.9446,2635.6138,2645.5137,2645.0466,2644.5457,2655.2222,2655.3857,2655.593,2655.7102,2664.5186,2665.3298,2665.5896,2670.474,2670.8955,2670.4553,2672.4695,2670.495,2669.754,2669.9631,2665.7375,2665.9695,2666.8442,2665.1558,2665.4167,2665.4893,2664.1875,2663.8936,2663.6248,2663.5784,2661.6833,2661.4644,2661.5774,2659.4402,2659.5671,2659.6863,2656.1035,2656.783,2657.0386,2658.0076,2650.4854,2654.2654,2643.808,2595.2188,2595.8057,2596.4563,2587.6418,2591.874,2595.3953,2595.983,2587.3604,2587.0525,2587.0696,nan,nan,nan,nan,nan,nan,nan,nan,nan,nan,nan,nan,nan,nan,nan,nan,nan,nan,nan,nan,nan,nan,nan,nan,nan,nan,nan,nan,nan,nan,nan,nan,nan,nan,nan,nan,nan,nan,nan,nan,nan,nan,nan,nan,nan,nan,nan,875.6867,875.56433,875.47675,866.7105,866.6462,868.23566,863.7343,863.99884,864.7138,865.70325,861.8847,862.1285,862.1994,859.23474,859.3069,859.3265,857.7315,857.7497,857.7709,857.8129,856.75745,856.6935,856.68304,855.9503,855.9692,855.9966,855.6377,855.65393,855.6661,855.7325,856.36957,856.4136,856.41943,857.7431,857.7579,857.8311,859.53986,859.5751,859.6253,859.73553,861.2102,861.23584,861.2903,862.8945,862.62067,862.31213,864.29156,864.0407,864.01654,863.9992,866.345,866.06384,865.6201,867.98206,867.96686,867.9685,870.0293,870.028,870.0032,870.0064,872.00275,871.98883,871.9848,873.9709,873.97626,873.9898,876.0532,876.05426,876.0591,876.0557,878.2002,878.1918,878.1863,880.87274,880.87915,880.8772,883.73663,883.71466,883.6716,883.583,886.68195,886.6644,886.63306,889.4774,889.49915,889.537,892.4406,892.5091,892.5355,892.5968,895.58765,895.58405,895.59753,898.5545,898.57446,898.5783,901.0164,900.9808,900.89557,900.861,902.5801,902.5481,902.46027,905.4378,905.5031,905.44464,908.8876,908.69006,908.6827,908.569,913.0375,912.8979,912.93304,918.73004,918.7992,919.02606,924.14624,924.43677,924.33496,924.19977,929.93365,929.59485,929.8453,938.076,938.1141,937.4055,947.76685,946.9324,945.7702,944.23413,954.86456,953.0483,953.09827,961.7927,961.80316,961.82117,nan,nan,nan,nan,2867.0056,2867.1904,2867.0835,2910.5378,2910.733,2902.9214,2929.2917,2923.2058,2918.0461,2910.7964,2951.9436,2953.074,2954.483,2929.5325,2939.7815,2930.644,2872.1714,2853.4417,2853.3809,2854.4917,2850.7043,2850.435,2850.372,2852.3887,2852.0676,2851.7883,2857.4614,2857.0327,2857.1057,2854.3132,2859.3281,2862.307,2861.8982,2861.722,2861.484,2861.3208,2859.9043,2859.7197,2859.8435,2860.0286,2862.406,2860.603,2860.5366,2865.4126,2859.7974,2864.2422,3119.7263,3106.9966,3122.719,3142.1265,3096.4429,3095.5051,3084.9727,3250.0183,3205.2964,3209.0725,3317.772,3297.623,3313.1694,3312.676,3288.029,3289.1992,3296.835,3275.377,3278.2522,3276.1477,3277.614,3275.0962,3273.4614,3277.154,3268.4167,3269.4875,3269.4446
